# .PCD v0.7 - Point Cloud Data file format
VERSION 0.7
FIELDS x y z rgb
SIZE 4 4 4 4
TYPE F F F U
COUNT 1 1 1 1
WIDTH 1257
HEIGHT 1
VIEWPOINT 0 0 0 1 0 0 0
POINTS 1257
DATA ascii
10.074002 5.7740002 2.8244057 1121369
9.9990015 5.8080001 2.9104056 8420467
10.078002 5.7800002 2.7804058 6250609
10.022002 5.822 2.8534057 8092280
10.011002 5.8169999 2.8614056 7368557
10.001001 5.8039999 2.8634057 7829108
9.9910021 5.7860003 2.8634057 2370652
10.078002 5.7870002 2.7324057 13747380
10.019002 5.823 2.8054056 7171176
10.009002 5.8130002 2.8094056 6579039
9.9990015 5.802 2.8144057 8092280
9.9920015 5.777 2.8094056 6384520
10.017002 5.8239999 2.7624056 8486268
9.9930019 5.7719998 2.7624056 8683648
9.9980021 5.803 2.6644056 8355714
10.016002 5.8200002 2.5324056 140925
10.001001 5.7690001 2.5364056 1650793
10.012002 5.8130002 2.4724057 469378
10.004002 5.8010001 2.4784057 206206
10.000002 5.783 2.4794056 795495
10.008001 5.8120003 2.4154058 8354947
10.004002 5.7940001 2.4174056 8814984
10.005002 5.7709999 2.4124057 8813953
10.008001 5.802 2.3474057 7893620
10.004002 5.7860003 2.3504057 7893619
10.018002 5.7490001 2.3324056 7960177
9.8660021 5.7490001 4.1144056 399980
9.8360014 5.7379999 4.1024055 465511
10.338002 5.9349999 3.8454056 10459545
10.194002 5.8899999 3.9044056 72033
10.167002 5.881 3.9154058 72298
9.8410015 5.7389998 4.0534058 269414
9.795002 5.7210002 4.0724058 400998
10.277001 5.948 3.8294058 10920096
10.194002 5.8959999 3.8724058 466523
10.125002 5.8629999 3.9054058 334687
10.008001 5.8109999 3.9574056 268131
9.920002 5.7690001 3.9964056 269153
9.8680019 5.7540002 4.0164056 399720
10.167002 5.8790002 3.8254056 398946
10.235002 5.921 3.7544057 12761520
10.122002 5.8650002 3.8124056 72540
9.8300018 5.737 3.9484057 5659740
9.7010021 5.6820002 4.0044055 795744
9.703002 5.658 4.0114055 6644312
10.209002 5.9070001 3.7344058 11906724
10.118002 5.8629999 3.7814057 71249
10.069002 5.8439999 3.8044057 334168
10.032001 5.8239999 3.7914057 333914
9.9660015 5.7940001 3.8244057 334177
9.9430017 5.7839999 3.8354056 2567773
10.156002 5.8870001 3.6894057 10787471
10.074002 5.8400002 3.7364056 399946
9.9110022 5.7730002 3.8164058 334167
9.7380018 5.6999998 3.8994057 204641
9.703002 5.6589999 3.9254057 6118739
10.158002 5.869 3.6574056 10787472
10.078002 5.8579998 3.6524057 12170154
9.8030014 5.7249999 3.8014057 7506
9.9960022 5.8280001 3.6544056 12432549
9.927002 5.7800002 3.6994057 1122370
9.9020014 5.7719998 3.7114058 597588
9.8780022 5.7620001 3.7234056 203094
9.8170013 5.7329998 3.7574058 268883
9.7920017 5.7259998 3.7684057 596311
9.9840021 5.7940001 3.6354058 14141885
9.8550014 5.7519999 3.6994057 4998459
9.9000015 5.7530003 3.6464057 3751482
9.8230019 5.7280002 3.6854057 7365991
9.7960014 5.704 3.7054057 7892838
9.9970016 5.777 3.5604057 3814708
10.018002 5.7449999 3.5254056 3748133
9.9960022 5.7649999 3.4754057 7830653
10.015002 5.7919998 3.0774057 7631726
10.006001 5.7620001 3.1014056 7503233
10.008001 5.7459998 3.1104057 7961218
10.013001 5.73 3.0464056 7172723
10.013001 5.7940001 2.9364057 11581093
9.9990015 5.7470002 2.9744058 7041406
10.018002 5.7329998 2.7524056 8750721
10.022002 5.7179999 2.7624056 8883592
10.009002 5.789 2.6294057 7893871
10.012002 5.7259998 2.6784058 8224902
10.035002 5.7129998 2.6784058 9671060
10.010002 5.7350001 2.5824056 1059162
10.026002 5.7210002 2.5864058 270446
10.058002 5.7090001 2.5824056 2187439
10.024002 5.7329998 2.4894056 599396
10.026002 5.717 2.5024056 336751
10.058002 5.7059999 2.4984057 3039654
10.020001 5.7259998 2.4004056 7894907
10.036002 5.7129998 2.4054058 8750988
10.023002 5.7220001 2.2994056 6446426
10.043002 5.71 2.3024056 8158591
10.052002 5.757 3.8054056 12502981
10.015002 5.777 3.8114057 9608091
10.028002 5.7990003 3.7964056 7897223
10.071002 5.822 3.8104057 12305603
10.194002 5.888 3.8494058 12109762
10.154002 5.8509998 3.8034058 6647412
10.175002 5.8720002 3.8144057 3949892
10.252002 5.8980002 3.8314056 9609364
10.186002 5.8780003 3.7914057 10134694
10.254002 5.9039998 3.8074057 5597264
10.217002 5.8860002 3.7704058 6123366
10.029002 5.7789998 3.6824057 7175036
9.9150019 5.7750001 3.6774056 9741748
10.129002 5.855 3.7264056 8884624
10.195002 5.8860002 3.7444057 4543299
9.9910021 5.7880001 3.6564057 7240823
10.138001 5.8600001 3.6974056 3092001
10.037002 5.743 3.6014056 10597055
10.050002 5.757 3.5764058 9412776
10.047002 5.756 3.5434058 10661039
10.067001 5.7309999 3.4724057 15527143
10.043002 5.7730002 3.5014057 13093569
10.027001 5.783 3.5094056 5199946
10.047002 5.7909999 3.4924057 4214075
10.062002 5.7420001 3.4184058 15724525
10.052002 5.789 3.4524057 5133387
10.040002 5.7909999 3.4384058 5132875
10.035002 5.7919998 3.4244056 4014137
10.061002 5.7540002 3.3764057 15068661
10.041002 5.7919998 3.4074056 3421742
10.058002 5.757 3.3444057 15919074
10.069002 5.7740002 3.3384056 14342097
10.039001 5.8000002 3.3664057 11049874
10.064002 5.7620001 3.3164058 8697057
10.072001 5.7810001 3.3044057 12367029
10.039001 5.8010001 3.3314056 11445143
10.014002 5.809 3.3474057 11247507
9.9740019 5.7969999 3.3544056 10853782
10.034001 5.8049998 3.3204057 11313299
10.031002 5.809 3.2694056 10328464
10.069002 5.789 3.2114058 7895407
10.035002 5.8039999 3.2394056 9144190
10.000002 5.8130002 3.2654057 10328464
10.064002 5.7839999 3.1814058 7040887
10.035002 5.8109999 3.2164056 7171175
10.037002 5.8109999 3.1894057 7302761
10.025002 5.8120003 3.1974056 7763312
10.061002 5.7940001 3.1324058 8355701
10.004002 5.8099999 3.1804056 8881793
10.069002 5.7950001 3.0984056 9408137
10.035002 5.8109999 3.1314056 9079172
10.066002 5.8120003 3.0754056 7105382
10.031002 5.8140001 3.1024058 8092277
10.071002 5.8039999 2.9814057 11644324
10.024002 5.8179998 3.0284057 6183508
9.9890022 5.7969999 3.0444057 7170661
10.072001 5.8099999 2.9404056 11710115
10.012002 5.8150001 2.9944057 11775908
9.9890022 5.7930002 3.0014057 11250593
10.075002 5.803 2.8914056 10854808
10.012002 5.8150001 2.9524057 11841703
10.002002 5.8060002 2.9564056 11710117
9.9910021 5.7950001 2.9614058 11974319
10.072001 5.8099999 2.8454056 7565936
10.021002 5.8190002 2.8964057 7959663
10.009002 5.8169999 2.9064057 7894123
9.9910021 5.7839999 2.9074056 1383517
10.074002 5.8049998 2.7954056 5131595
9.9900017 5.7849998 2.8664057 1252436
10.063002 5.823 2.7594056 10724251
9.9940014 5.7930002 2.8154056 6842224
10.005002 5.8150001 2.7604058 8289666
10.013001 5.8210001 2.6394057 8682106
10.002002 5.7610002 2.6374056 9144714
10.011002 5.809 2.5784056 403577
10.000002 5.777 2.5844057 1978196
10.006001 5.8080001 2.5264056 10375
10.001001 5.7909999 2.5294056 207231
10.009002 5.7589998 2.5164056 1715816
10.011002 5.7839999 2.3824058 8222844
10.006001 5.7690001 2.3874056 9472138
10.010002 5.79 2.3164058 6380377
10.217002 5.9110003 4.0324059 399717
9.9110022 5.7839999 4.1274056 531292
9.8250017 5.7410002 4.1624055 138345
10.261002 5.9770002 3.9374056 13222851
10.209002 5.9089999 3.9754057 399460
10.166002 5.8839998 3.9964056 333924
9.8760014 5.7660003 4.1144056 465760
10.210002 5.901 3.9464056 268124
10.087002 5.849 4.0004058 6760
10.073002 5.8579998 3.9704056 333672
10.244001 5.9619999 3.8464057 10525338
10.253002 5.954 3.8104057 11313566
10.207002 5.9520001 3.8264058 11905961
10.165002 5.8839998 3.8644056 399971
10.084002 5.8579998 3.8994057 334689
10.047002 5.8320003 3.9204056 333924
9.9310017 5.783 3.9724057 6052706
10.189002 5.9440002 3.7994056 14997973
9.8320017 5.7350001 3.9864056 5793667
9.7400017 5.7020001 4.0254059 335719
10.114002 5.8650002 3.8164058 7002
9.729002 5.7030001 3.9964056 269928
9.7020016 5.6560001 4.0194058 6776155
10.124002 5.8660002 3.7744057 334417
10.042002 5.8400002 3.8114057 334168
10.093001 5.855 3.7494056 268880
9.9110022 5.7730002 3.8424056 5527911
9.7020016 5.6589999 3.9514058 5986387
10.161002 5.8850002 3.6724057 12103332
10.109002 5.8850002 3.6904056 10787472
9.9950018 5.8120003 3.7604058 268633
9.8660021 5.7509999 3.8274057 1384523
10.012002 5.8239999 3.7104056 1054781
9.9630022 5.8049998 3.7354057 334166
9.8490019 5.757 3.7944057 268636
9.8260021 5.7480001 3.8054056 202597
9.7230015 5.665 3.8724058 6052671
9.9940014 5.8499999 3.6674056 11709086
9.9540014 5.7909999 3.7064056 72788
9.7840014 5.7290001 3.7914057 71520
9.9610014 5.75 3.6404057 3816762
9.8100014 5.7290001 3.7034056 6509897
9.8030014 5.7150002 3.7124057 6970960
9.9870014 5.7280002 3.3454056 2109519
10.037002 5.7059999 3.2224057 7436936
9.9920015 5.7259998 3.1584058 8358023
10.002002 5.7389998 3.0074058 7172725
10.004002 5.7280002 2.8694057 795244
10.020001 5.7140002 2.8734057 5858934
10.000002 5.7360001 2.7844057 5527897
10.008001 5.7220001 2.7924056 8225923
10.048002 5.71 2.7844057 8291200
10.016002 5.7319999 2.6934056 8356488
10.014002 5.7160001 2.7074056 8685452
10.059002 5.7059999 2.6974056 13485507
10.014002 5.7930002 2.5594056 8880517
10.011002 5.7259998 2.6154056 1846860
10.026002 5.7119999 2.6204057 1585513
10.014002 5.7379999 2.5104058 1190246
10.018002 5.7220001 2.5224056 991592
10.039001 5.71 2.5244057 11149
10.012002 5.7329998 2.4154058 7566198
10.030002 5.7200003 2.4194057 8751247
10.056002 5.71 2.4184058 13749709
10.006001 5.7259998 2.3154056 6511187
10.071002 5.711 2.3044057 14536902
10.288002 5.9159999 4.0644054 13545386
10.032001 5.7690001 3.9534056 8491415
10.296001 5.9159999 4.0324059 13677999
10.021002 5.7340002 3.9084058 10268857
10.012002 5.7779999 3.9284058 7306625
10.058002 5.7579999 3.8914056 9873583
10.293002 5.9120002 3.9734056 13159350
10.063002 5.7610002 3.8644056 9740968
10.050002 5.7610002 3.8344057 9806243
10.027001 5.7779999 3.8424056 8029318
10.229002 5.9000001 3.9074056 11649212
10.294002 5.9260001 3.9214056 6248770
10.056002 5.7220001 3.7864056 10266022
10.047002 5.7400002 3.7954056 13884116
10.049002 5.7600002 3.8054056 12305859
10.031002 5.777 3.8144057 9344662
9.9650021 5.8060002 3.8284056 12568516
10.042002 5.796 3.7974057 8423566
10.134002 5.8709998 3.8364058 13226703
10.274002 5.915 3.8594058 4016441
10.108002 5.848 3.7924056 2502452
10.034001 5.7540002 3.7104056 10727095
10.048002 5.777 3.7224057 6648955
10.027001 5.789 3.7294056 10070192
10.229002 5.9000001 3.7864056 5400149
10.039001 5.7639999 3.6814058 9807280
10.001001 5.7870002 3.6964056 9016724
10.046001 5.7649999 3.6484056 9149598
10.046001 5.7839999 3.6594057 7043184
10.035002 5.7969999 3.6674056 10397860
10.055002 5.823 3.6814058 11121849
10.152001 5.8940001 3.7174056 6713172
10.050002 5.7709999 3.6254058 6188645
10.051002 5.8260002 3.6584058 2172198
10.118002 5.888 3.6904056 5987384
10.050002 5.7670002 3.5934057 7636094
10.055002 5.7860003 3.5824056 5727310
10.058002 5.7550001 3.5404058 12042435
10.050002 5.7870002 3.5614057 2897955
10.053001 5.7420001 3.5134056 15855601
10.053001 5.7789998 3.5374057 3818806
10.057002 5.7360001 3.4914057 15854827
10.050002 5.8049998 3.5034056 4347198
10.038002 5.8000002 3.4854057 2965801
10.034001 5.8169999 3.4974058 3294765
10.062002 5.7649999 3.4384058 14408921
10.066002 5.7690001 3.4074056 15460324
10.072001 5.7820001 3.3924057 9144194
9.9920015 5.8140001 3.4094057 8420213
10.066002 5.7990003 3.3304057 8486260
10.033002 5.8150001 3.3574057 9670534
10.066002 5.7810001 3.2944057 6842224
10.016002 5.8190002 3.3454056 11775910
10.069002 5.7990003 3.2744057 11907496
10.062002 5.7990003 3.2204056 7039332
10.031002 5.8190002 3.2534056 9933706
10.019002 5.8200002 3.2614057 10854808
10.069002 5.7950001 3.1844056 7500395
10.060001 5.8169999 3.2034056 7500140
10.025002 5.8190002 3.2284057 7500140
10.067001 5.8140001 3.1624057 8487035
10.064002 5.8330002 3.1364057 8750207
9.9940014 5.8190002 3.1824057 8816000
10.023002 5.822 3.0764058 7236968
10.000002 5.8200002 3.0944057 7302761
9.9890022 5.8010001 3.0934057 6447452
10.022002 5.8249998 3.0364056 7171175
10.010002 5.8249998 3.0464056 6973796
9.9990015 5.8190002 3.0534058 7039589
9.9890022 5.803 3.0544057 6710624
10.071002 5.8109999 2.9384058 11775909
10.019002 5.823 2.9894056 10986391
10.006001 5.8239999 3.0014057 11644322
9.9970016 5.8109999 3.0044057 11775908
9.9880018 5.7950001 3.0054057 11842474
10.067001 5.8210001 2.9014056 12104875
10.005002 5.8150001 2.9554057 11841703
9.9940014 5.809 2.9634056 11841703
9.9880018 5.7860003 2.9604056 1908806
9.9900017 5.7979999 2.9134057 7893357
10.061002 5.8379998 2.8064058 7236971
9.9920015 5.8070002 2.8644056 7960694
10.055002 5.8340001 2.7564056 9539977
10.001001 5.8080001 2.7474058 8553352
9.9890022 5.8010001 2.7574058 8816523
9.9950018 5.7649999 2.7444057 8814975
10.012002 5.8239999 2.6814058 8157821
10.000002 5.816 2.6914058 8421508
9.9970016 5.7969999 2.6924057 8290180
9.9950018 5.777 2.6914058 8815750
9.9990015 5.8070002 2.6354058 8552576
9.9910021 5.7950001 2.6424057 8421503
9.9950018 5.7909999 2.5084057 599412
10.007002 5.7610002 2.4324057 7763589
10.008001 5.7680001 2.2924056 5655621
9.7900019 5.645 4.5014057 3695758
9.8790016 5.6810002 4.4534059 148621
9.8670015 5.6729999 4.4384055 1066363
9.8370018 5.6659999 4.4464059 411279
9.7900019 5.6440001 4.4614058 476564
9.8250017 5.6560001 4.4324055 9145739
9.8030014 5.6440001 4.4404058 4873344
9.7760019 5.6339998 4.4474058 402554
9.7330017 5.6110001 4.4624057 6375751
9.9780016 5.7530003 4.3544059 4208706
9.9430017 5.7200003 4.3704057 6380630
9.9180021 5.71 4.3784056 5459260
9.7670021 5.6230001 4.4334059 7565163
10.087002 5.8470001 4.2794056 2371928
9.887002 5.6789999 4.3714056 4010801
9.8510017 5.678 4.3794055 5787466
10.080002 5.849 4.2544055 137574
10.034001 5.8249998 4.2734056 398954
9.9840021 5.8039999 4.2904058 333923
9.9620018 5.7930002 4.2994056 794693
9.8690014 5.6360002 4.3634057 7763576
9.7840014 5.6459999 4.3794055 2825246
9.7650023 5.632 4.3874059 4601656
10.104002 5.8520002 4.2204056 71781
9.9780016 5.802 4.2654057 268640
9.9570017 5.789 4.2744055 72049
9.9070015 5.7709999 4.2914057 2437203
10.319002 5.9489999 4.1064057 3483697
10.195002 5.8910003 4.1574059 465514
10.172002 5.8790002 4.1664057 137841
10.121002 5.8579998 4.1864057 530801
10.042002 5.8299999 4.2144055 71782
9.9970016 5.8070002 4.2324057 137575
10.306002 5.967 4.0734057 13288378
10.289001 5.9520001 4.0824056 4800315
10.210002 5.895 4.1224055 334940
10.184002 5.8850002 4.1324058 204397
10.136002 5.8629999 4.1524057 2503261
10.085002 5.842 4.1714058 1055833
10.035002 5.823 4.1904058 137825
9.9630022 5.7919998 4.2174058 203370
9.9120016 5.7740002 4.2354054 203370
10.334002 5.961 4.0344057 13288898
10.215002 5.901 4.0874057 267872
10.144002 5.8660002 4.1174059 464741
10.123002 5.8530002 4.1274056 5720687
10.099002 5.8429999 4.1374059 6380126
10.048002 5.8239999 4.1564054 333674
9.8770018 5.757 4.2204056 203370
9.828002 5.7389998 4.2374058 597098
10.187002 5.8850002 4.0684056 6754
10.090002 5.8429999 4.1084056 6709875
9.8290014 5.7340002 4.2104058 72813
10.305002 5.9689999 3.9714057 12104369
10.163002 5.8759999 4.0444055 268643
10.140002 5.8650002 4.0544057 203108
10.089002 5.8450003 4.0754056 333659
9.9020014 5.7639999 4.1524057 465510
9.8760014 5.757 4.1614056 268648
9.8520021 5.7480001 4.1704059 138345
9.8320017 5.737 4.1794057 138345
10.222002 5.902 3.9824057 399717
10.198002 5.8920002 3.9934056 268131
10.174002 5.881 4.0044055 333924
10.123002 5.8610001 4.0254059 333924
10.057002 5.8260002 4.0554056 5525867
10.004002 5.8099999 4.0764055 3159133
9.7760019 5.7140002 4.1684055 138345
10.218001 5.902 3.9484057 333917
10.169002 5.881 3.9704056 7008
9.802002 5.7200003 4.1294055 269931
10.287002 5.9460001 3.8744056 11183268
10.180002 5.8829999 3.9304056 72550
10.085002 5.8400002 3.9744058 333927
10.034001 5.8210001 3.9964056 463979
9.9650021 5.7909999 4.0264058 2764634
9.9210014 5.7709999 4.0464058 7529
9.8710022 5.7540002 4.0664058 72809
9.8300018 5.7329998 4.0844059 203107
9.7400017 5.697 4.1214056 533613
10.281002 5.9440002 3.8374057 10854303
10.126001 5.8600001 3.9174056 268381
10.075002 5.8410001 3.9404056 333923
10.053001 5.829 3.9504056 333924
10.006001 5.809 3.9724057 136797
9.7380018 5.6950002 4.0894055 270699
10.185001 5.8829999 3.8514056 399458
10.128002 5.8650002 3.8754058 269150
9.9690018 5.7909999 3.9524057 4343909
9.8960018 5.7639999 3.9844058 6514
10.244001 5.9200001 3.7764056 14801106
10.158002 5.8709998 3.8234057 268130
10.078002 5.842 3.8604057 334176
9.9610014 5.7919998 3.9164057 269412
9.8760014 5.75 3.9584057 4475244
9.7020016 5.658 4.0434055 6644316
10.057002 5.8280001 3.8314056 268121
10.000002 5.8120003 3.8554056 399968
9.9580021 5.79 3.8774056 2239573
9.7780018 5.7150002 3.9624057 204385
9.7400017 5.6940002 3.9814057 139115
10.005002 5.8099999 3.8154056 333914
9.913002 5.77 3.8614056 5986127
9.8660021 5.7519999 3.8834057 5986137
9.8460016 5.7420001 3.8944056 5657945
9.7640018 5.7020001 3.9354057 467043
10.141002 5.881 3.7014058 12235676
10.011002 5.8109999 3.7744057 268636
9.9650021 5.79 3.7984056 203100
9.9420013 5.7810001 3.8104057 72536
9.8710022 5.7519999 3.8454056 6119765
10.132002 5.8720002 3.6654058 10655886
10.089002 5.8650002 3.6834056 13156020
10.020001 5.8140001 3.7294056 137816
9.920002 5.7740002 3.7804058 268636
9.8810015 5.7519999 3.8024056 269403
10.064002 5.848 3.6554058 11249051
9.9770021 5.802 3.7064056 466259
9.8040018 5.7179999 3.8014057 72018
10.004002 5.809 3.6444056 12235174
9.8790016 5.743 3.6704056 3750976
9.8320017 5.7059999 3.7044058 7366235
9.7970018 5.6989999 3.7194057 8025706
9.7870016 5.6859999 3.7294056 9012604
9.9960022 5.7530003 3.4744058 8027774
10.003002 5.7589998 3.3604057 7896702
10.003002 5.7490001 3.3074057 1519456
10.011002 5.7189999 3.1184056 8291460
9.9960022 5.7870002 3.0064056 8947843
10.002002 5.7389998 2.9654057 6317434
10.013001 5.724 2.9724057 1714524
10.040002 5.711 2.9714057 9871280
10.010002 5.7329998 2.8884056 2045027
10.022002 5.7179999 2.8954058 3228266
10.023002 5.7930002 2.7524056 9209990
10.015002 5.7270002 2.8064058 7831691
10.036002 5.7140002 2.8084056 7764861
10.023002 5.79 2.6704056 8485755
10.009002 5.7379999 2.7174056 7697528
10.020001 5.723 2.7254057 8685452
10.048002 5.7119999 2.7234056 13420744
10.018002 5.7340002 2.6254058 6910082
10.027001 5.7189999 2.6354058 8556448
10.032001 5.7150002 2.5394056 271743
10.008001 5.7550001 2.3004057 7104098
10.134002 5.8400002 4.1414056 11647419
10.036002 5.7490001 4.0634055 10597052
10.011002 5.7719998 4.0724058 7635084
10.255002 5.9000001 4.1354055 14403778
10.025002 5.7360001 4.0254059 10597051
10.208002 5.8910003 4.0994058 11582138
9.6880016 5.6430001 3.9444056 11185302
10.024002 5.7350001 3.9934056 10136758
10.004002 5.776 4.0124059 7306370
10.017002 5.7350001 3.9614058 10005172
10.010002 5.776 3.9814057 7043198
10.218001 5.895 4.0394058 12569030
10.288002 5.9200001 4.0514059 12886686
9.7000017 5.6459999 3.8864057 9213827
10.017002 5.7750001 3.9504056 7043198
10.259002 5.902 4.0114055 14012111
10.288002 5.9240003 4.0214057 12556439
9.8790016 5.7080002 3.8884056 12043204
10.042002 5.756 3.9104056 10137013
10.020001 5.7730002 3.9184058 7570055
10.293002 5.9299998 3.9934056 10718848
10.030002 5.7319999 3.8684056 10334134
10.027001 5.77 3.8884056 8491415
9.9750013 5.7789998 3.8944056 7372678
10.049002 5.7540002 3.8444057 10135726
10.013001 5.7839999 3.8614056 8490126
10.026002 5.7839999 3.8284056 10331299
10.253002 5.902 3.8814056 10990763
10.250002 5.9370003 3.8994057 6382924
10.057002 5.763 3.7804058 8555663
10.047002 5.7779999 3.7884057 13752542
10.180002 5.8759999 3.8354056 13161167
10.034001 5.7530003 3.7404056 10465723
10.043002 5.7750001 3.7514057 5333869
10.028002 5.7880001 3.7604058 4674912
9.8950014 5.756 3.7524056 10728634
10.233002 5.9000001 3.8084056 7767669
10.234002 5.9180002 3.8184056 6714971
10.038002 5.7579999 3.7154057 9674921
10.187002 5.8759999 3.7694056 7700609
10.209002 5.9190001 3.7924056 3558704
10.045002 5.7730002 3.6934056 7109246
10.033002 5.7860003 3.7014058 10398378
10.161002 5.8650002 3.7344058 5331804
10.191002 5.8969998 3.7504058 5070411
10.030002 5.744 3.6544056 11057859
10.049002 5.7730002 3.6684058 7438208
10.124002 5.849 3.7054057 5462103
9.9480019 5.809 3.7034056 11450553
10.029002 5.7459998 3.6314056 10597562
10.051002 5.7779999 3.6484056 3425084
10.081002 5.8320003 3.6764057 4804182
10.128002 5.8769999 3.6964056 3025940
10.053001 5.7860003 3.6334057 3819319
10.019002 5.7990003 3.6474056 594184
10.041002 5.7680001 3.6054056 8360329
10.046001 5.79 3.6184056 4280376
10.025002 5.7930002 3.6244056 4411709
10.035002 5.7660003 3.5874057 8491408
10.042002 5.7909999 3.6014056 793604
10.023002 5.7930002 3.6084056 1254157
10.037002 5.7620001 3.5674057 9281184
10.035002 5.7639999 3.5514057 9279640
10.023002 5.7680001 3.5244057 11778484
10.054002 5.7550001 3.4894056 15658217
10.058002 5.7660003 3.4714057 14475740
10.037002 5.7919998 3.4804056 3095339
10.061002 5.7610002 3.4274056 7632761
10.037002 5.7969999 3.4274056 10525843
10.033002 5.7990003 3.4064057 8617847
10.062002 5.777 3.3484056 7565419
10.021002 5.8060002 3.3884056 8025455
10.028002 5.8080001 3.3314056 7630951
10.034001 5.8039999 3.2964056 8223088
10.023002 5.8080001 3.3064058 7499365
10.063002 5.7740002 3.2284057 2173525
10.031002 5.8070002 3.2684057 10328464
10.062002 5.7870002 3.1984057 7237998
10.016002 5.8120003 3.2454057 9802120
10.000002 5.8179998 3.2174056 7565933
10.023002 5.8150001 3.1584058 8750207
10.011002 5.816 3.1684058 8684414
9.9880018 5.8000002 3.1784058 8158585
10.023002 5.8130002 3.1164057 8750207
9.9990015 5.8109999 3.1354058 8816000
9.9890022 5.7969999 3.1374056 8881280
10.020001 5.8109999 3.0714056 7368554
10.006001 5.8140001 3.0834057 7829105
9.9970016 5.8000002 3.0854056 7631469
9.9880018 5.783 3.0874057 7106414
10.005002 5.8070002 3.0404058 6973796
9.9870014 5.7789998 3.0464056 7501945
10.008001 5.8109999 2.9904056 11710114
10.012002 5.8150001 2.9384058 11644324
9.9930019 5.7979999 2.9514058 10987931
9.9900017 5.7690001 2.9464056 729968
10.016002 5.8150001 2.8824058 8223866
9.9910021 5.7779999 2.8984056 925547
10.013001 5.8109999 2.7754056 9474184
10.003002 5.8010001 2.7834058 9803149
9.9930019 5.7690001 2.7884057 7305845
9.9990015 5.796 2.7334056 8487559
9.9970016 5.7779999 2.7344058 8552836
9.9940014 5.7909999 2.6794057 8355971
10.000002 5.7639999 2.6724057 8815233
9.9990015 5.7750001 2.6074057 8882580
10.020001 5.7509999 2.4614058 2372195
10.039001 5.7350001 2.3784056 8683137
10.009002 5.7719998 2.3334057 7170150
9.8510017 5.6830001 4.5764055 9803919
9.802002 5.665 4.5274057 8815986
10.179002 5.829 4.3794055 3487519
9.9310017 5.717 4.4644055 731002
9.861002 5.684 4.4874058 141439
9.8110018 5.664 4.5024056 141184
10.109002 5.79 4.3804059 2105364
10.083002 5.7800002 4.3884058 2630937
9.8170013 5.6610003 4.4774055 141184
10.108002 5.8670001 4.3274055 2500626
10.126001 5.8280001 4.3354058 2566418
9.8150015 5.6610003 4.4514055 141184
9.7670021 5.6410003 4.4664059 141184
9.9380016 5.73 4.3784056 6906983
10.067001 5.8460002 4.2844057 4015200
9.7530022 5.605 4.3984056 4276276
10.281002 5.9530001 4.1304059 1443865
10.026002 5.8249998 4.2374058 137575
10.201002 5.9000001 4.1344056 1057113
9.9800014 5.8070002 4.2214055 137575
10.192001 5.8920002 4.1024055 5481
10.168002 5.882 4.1124058 6760
10.305002 5.9749999 4.0044055 12499129
10.288002 5.96 4.0144057 12762553
10.160002 5.8829999 4.0774055 7009
9.8510017 5.7530003 4.2034059 203370
10.222002 5.908 4.0144057 399717
10.296001 5.96 3.9334056 12893886
10.213002 5.908 3.9784057 399460
10.191002 5.8959999 3.9884057 333924
10.096002 5.8509998 4.0324059 137823
10.069002 5.8429999 4.0424056 268392
10.199002 5.9000001 3.9444056 268124
10.125002 5.8670001 3.9784057 268644
10.058002 5.8340001 4.0094056 202855
9.9630022 5.7930002 4.0514059 661080
9.9380016 5.7839999 4.0614057 269159
9.8680019 5.756 4.0914059 203626
9.8010015 5.7270002 4.1194057 334441
10.200002 5.8980002 3.9024057 334940
10.171001 5.888 3.9154058 204136
10.007002 5.8120003 3.9924057 857677
9.9580021 5.7930002 4.0134058 5920878
9.7760019 5.717 4.0924058 335721
10.148002 5.875 3.8844056 465501
9.9600019 5.79 3.9734056 6183264
9.8180017 5.7350001 4.0354056 137828
10.150002 5.8769999 3.8414056 399200
10.130002 5.8639998 3.8524058 137821
10.074002 5.8450003 3.8774056 399969
10.043002 5.8369999 3.8904057 399969
10.007002 5.8120003 3.9114056 334176
9.9580021 5.7919998 3.9334056 332627
9.9120016 5.7719998 3.9554057 5331569
9.8200016 5.7340002 3.9974058 3425914
9.781002 5.7140002 4.0164056 269414
9.7760019 5.717 3.9794056 269923
10.147002 5.9089999 3.7434056 12432555
10.120002 5.8610001 3.7744057 71504
10.067001 5.8400002 3.7994056 334168
9.9450016 5.7870002 3.8604057 5593176
9.880002 5.756 3.8934057 5920599
9.8300018 5.737 3.9164057 5462382
9.7850018 5.7179999 3.9374056 138601
9.7500019 5.6960001 3.9574056 335721
10.033002 5.8260002 3.7724056 399448
9.9580021 5.7940001 3.8104057 7254
9.7050018 5.6859999 3.9334056 270695
9.703002 5.6360002 3.9554057 4866621
10.031002 5.8239999 3.7244058 203602
9.9600019 5.7909999 3.7624056 202841
9.8810015 5.7620001 3.8004057 203611
9.8090019 5.7319999 3.8364058 399691
9.7460022 5.7010002 3.8694057 335712
9.9590015 5.7940001 3.7124057 137558
9.8110018 5.7319999 3.7884057 137314
9.8970022 5.7670002 3.6954057 5525590
9.8720016 5.756 3.7084057 3555416
9.8300018 5.7329998 3.7334056 2765645
9.9650021 5.7319999 3.6424057 3947067
9.8480015 5.7389998 3.6764057 6644840
9.8320017 5.7270002 3.6884058 6970716
9.8190022 5.7140002 3.6984057 7431259
9.9970016 5.7579999 3.5154057 8026485
9.9990015 5.7579999 3.3994057 8093825
9.9950018 5.7420001 3.4104056 9606289
10.000002 5.7589998 3.3304057 7568516
10.025002 5.71 3.3504057 7828848
9.9950018 5.7449999 3.2754056 1913967
10.013001 5.7280002 3.2104056 1978469
10.006001 5.7350001 3.1394057 6383706
10.006001 5.7189999 3.1494057 8357253
10.011002 5.7340002 3.0684056 6251620
10.012002 5.7179999 3.0784056 8291460
10.003002 5.7420001 2.9884057 8093576
10.012002 5.7280002 2.9954057 9015713
10.034001 5.7150002 2.9974058 8619907
10.008001 5.737 2.9074056 2044783
10.027001 5.724 2.9104056 1189746
10.046001 5.71 2.9144056 7569804
10.011002 5.7490001 2.8164058 665965
10.013001 5.7329998 2.8274057 4678016
10.025002 5.7189999 2.8344057 5532797
10.058002 5.7090001 2.8314056 6977912
10.030002 5.7140002 2.7484057 9342354
10.024002 5.7249999 2.6474056 8488327
10.042002 5.7119999 2.6524057 11448220
10.017002 5.7350001 2.5404058 664168
10.060001 5.7129998 2.5444057 2316966
10.070002 5.7150002 2.4364057 15195350
10.070002 5.7160001 2.3284056 14867155
10.108002 5.848 4.2634058 14343398
10.167002 5.8629999 4.2324057 14738918
10.037002 5.7150002 4.1324058 14015712
10.050002 5.7389998 4.1434054 14148586
10.021002 5.7589998 4.1524057 10661298
9.9420013 5.7810001 4.1624055 7766916
10.189002 5.8720002 4.2024055 12831437
10.014002 5.7340002 4.1074057 10465717
10.036002 5.7789998 4.1274056 14213101
10.031002 5.8010001 4.1374059 12634051
10.058002 5.8239999 4.1474056 13424082
10.081002 5.8470001 4.1574059 13884381
10.010002 5.7329998 4.0734057 10268084
10.061002 5.7600002 4.0844059 10004145
10.005002 5.7750001 4.0924058 6713470
9.9110022 5.7179999 4.0344057 12503495
10.016002 5.7740002 4.0584059 7502982
10.245002 5.9200001 4.1224055 11371393
9.7980022 5.691 3.9934056 12437446
10.036002 5.7530003 4.0154057 10531772
10.032001 5.7719998 4.0254059 7635337
10.125002 5.8670001 4.0684056 12502728
10.282001 5.908 4.0824056 14864329
9.7200022 5.6599998 3.9524057 12896960
10.038002 5.77 3.9924057 7964814
9.9960022 5.7810001 4.0004058 7635590
10.043002 5.7490001 3.9454057 10795201
10.050002 5.77 3.9554057 7438213
10.023002 5.783 3.9634056 9082777
10.121002 5.8629999 3.9984057 12435641
10.265002 5.9370003 3.9924057 10587518
10.036002 5.7509999 3.8734057 10597563
10.044002 5.7719998 3.8844056 7109504
10.028002 5.7849998 3.8934057 10595504
10.287002 5.9400001 3.9544058 7832154
10.042002 5.7870002 3.8564057 11450296
9.9440022 5.7680001 3.8554056 10004655
10.265002 5.941 3.9184058 6841158
10.049002 5.7189999 3.7874057 12239556
10.055002 5.7400002 3.7994056 13621202
10.032001 5.7480001 3.8064058 12503240
10.048002 5.7740002 3.8194056 8489610
10.039001 5.7880001 3.8284056 12304832
10.133001 5.8460002 3.8504057 12568774
10.025002 5.737 3.7694056 10793653
10.047002 5.7660003 3.7834058 9279128
10.051002 5.7870002 3.7944057 10791600
10.144002 5.849 3.8184056 12371393
10.249002 5.934 3.8524058 5793101
10.036002 5.757 3.7544057 10531258
10.055002 5.7860003 3.7684057 2832450
10.199002 5.882 3.8024056 9805726
10.229002 5.9320002 3.8264058 4938554
10.048002 5.7660003 3.7334056 8557468
10.220002 5.9070001 3.7864056 5269073
10.061002 5.7820001 3.7194057 10332848
10.210002 5.9169998 3.7704058 1453845
10.178001 5.9120002 3.7744057 2177059
10.036002 5.7540002 3.6884058 10070717
10.171001 5.8730001 3.7304056 3555391
10.052002 5.7680001 3.6744056 7701640
10.060001 5.789 3.6664057 10727079
10.044002 5.7789998 3.6444056 3030324
10.079001 5.8340001 3.6674056 2369837
10.046001 5.7990003 3.6374056 1251597
9.8480015 5.7750001 3.6844056 10399165
10.050002 5.7860003 3.6114056 2964518
10.047002 5.803 3.6234057 4147252
10.025002 5.8099999 3.6184056 3950129
10.016002 5.8429999 3.6414056 857100
9.8930016 5.7940001 3.6584058 7372414
10.040002 5.7909999 3.5784056 5530185
10.032001 5.8130002 3.5774057 4479287
10.029002 5.7839999 3.5064056 9143421
10.031002 5.8010001 3.4614058 8552053
10.021002 5.8120003 3.4734056 8617846
10.033002 5.8010001 3.4344056 11841449
10.022002 5.809 3.4444056 11512738
10.059002 5.789 3.3824058 8024939
10.016002 5.8150001 3.4234056 8091248
9.9740019 5.79 3.4354057 9275779
10.034001 5.8070002 3.3794057 10328210
9.9740019 5.8039999 3.4174056 8683640
10.030002 5.8070002 3.3504057 8881018
10.018002 5.8120003 3.3604057 9275776
10.062002 5.802 3.2884057 8288881
10.015002 5.8150001 3.3284056 8091502
9.979002 5.7930002 3.3434057 7960432
10.056002 5.816 3.2154057 7697519
10.009002 5.8109999 3.2494056 10789015
9.9760017 5.7719998 3.2584057 468340
10.020001 5.8150001 3.2034056 8026484
10.008001 5.8140001 3.2124057 8026484
10.016002 5.816 3.1614056 8750207
10.005002 5.8099999 3.1674056 8750207
10.067001 5.802 3.0724056 7302761
10.012002 5.8140001 3.1224058 8552828
10.000002 5.8150001 3.1324058 9013379
9.9870014 5.77 3.1304057 7567234
10.056002 5.8150001 3.0364056 6973796
9.9970016 5.7969999 3.0834057 7433833
9.9900017 5.7800002 3.0844057 7436151
10.066002 5.8080001 2.9774058 11841701
9.9870014 5.7670002 3.0374057 7371391
10.010002 5.8169999 2.9794056 12039079
9.9920015 5.7969999 2.9914057 11381661
9.9930019 5.7660003 2.9844058 7305596
10.057002 5.822 2.8844056 7499623
9.9950018 5.7709999 2.9334056 73326
10.004002 5.7909999 2.8754058 6185587
9.9910021 5.7610002 2.8834057 403065
10.050002 5.8320003 2.7834058 7565934
9.9950018 5.7919998 2.8324056 6647162
10.001001 5.7610002 2.8244057 140928
9.9950018 5.7779999 2.7754056 6975348
10.004002 5.7589998 2.7034056 8617855
10.014002 5.8099999 2.6324058 8682619
10.008001 5.756 2.6414056 8947335
10.170002 5.744 2.4254057 11969687
10.004002 5.77 2.5804057 1715025
10.108002 5.7969999 2.3464057 12956332
10.022002 5.7530003 2.4374056 2899306
10.013001 5.777 2.3744056 8156794
10.020001 5.756 2.3734057 8156791
9.7320023 5.6469998 4.7454057 935559
9.7710018 5.6630001 4.7104058 149913
9.8130016 5.6750002 4.6784058 1263224
9.7370014 5.6440001 4.6994057 870280
9.9980021 5.757 4.6014056 9472895
9.8230019 5.678 4.6544056 9342086
10.033002 5.7680001 4.5684056 2893097
9.7110014 5.6290002 4.6644058 6705732
10.165002 5.8239999 4.5004058 337021
10.112001 5.803 4.5164056 338285
10.085002 5.7930002 4.5254059 4609911
9.8860016 5.7059999 4.5874057 8879752
9.8380022 5.684 4.6024055 9538953
9.8130016 5.6740003 4.6094055 8881791
10.140002 5.8120003 4.4804058 75129
10.089002 5.79 4.4974055 9597
9.9910021 5.7449999 4.5294056 8093325
9.9610014 5.737 4.5374055 8815238
9.9100018 5.7179999 4.5524058 1115661
9.7920017 5.6630001 4.5904055 9012363
10.276002 5.888 4.3984056 5195061
10.138001 5.809 4.4514055 4477819
10.013001 5.7540002 4.4934058 9337
9.913002 5.7129998 4.5244055 8488584
9.7920017 5.6620002 4.5624056 1248782
10.230001 5.8540001 4.3874059 4736303
10.201002 5.8439999 4.3974056 4210984
10.158002 5.8429999 4.4054055 3818011
9.9610014 5.73 4.4814057 337280
9.887002 5.6999998 4.5054059 403065
9.8380022 5.6799998 4.5204058 7505555
10.216002 5.7990003 4.3774056 1974032
10.156002 5.8080001 4.3864055 2895133
10.082002 5.8010001 4.4044056 2501143
9.8340015 5.6760001 4.4934058 141184
9.7230015 5.6240001 4.5294056 6180159
9.8500013 5.6799998 4.4584055 141184
10.162002 5.9130001 4.2814054 3421479
10.109002 5.8920002 4.3004055 3882025
10.057002 5.8720002 4.3184056 3290142
10.032001 5.8390002 4.3354058 2763797
10.020001 5.8210001 4.3444057 2763548
9.8300018 5.6669998 4.4354057 8357523
10.204001 5.941 4.2254057 1182483
10.188002 5.9250002 4.2354054 1380117
9.9770021 5.7789998 4.3344059 2564388
9.9090014 5.6989999 4.3764057 4471599
9.7400017 5.6360002 4.4314055 8882054
9.7400017 5.6110001 4.4394054 5587001
10.156002 5.8829999 4.2194057 3093090
9.7500019 5.6220002 4.4004059 6641999
10.306002 5.9499998 4.1214056 3286069
10.190001 5.8980002 4.1314058 531803
10.144002 5.875 4.1514058 334436
9.946002 5.7940001 4.2284055 203370
9.8570023 5.7530003 4.2644057 269923
10.117002 5.862 4.1234055 987744
9.8710022 5.7649999 4.2204056 203370
9.8480015 5.7550001 4.2294059 203369
9.8290014 5.744 4.2374058 137318
9.8110018 5.711 4.2544055 10327433
10.229002 5.9710002 4.0094056 12696761
10.199002 5.9000001 4.0464058 333927
10.124002 5.8670001 4.0794058 203108
10.101002 5.8559999 4.0894055 662123
10.076002 5.8450003 4.0994058 5131886
9.7920017 5.7290001 4.2144055 268657
9.7670021 5.7210002 4.2224054 3292005
10.314002 5.961 3.9474056 11972784
10.243002 5.9650002 3.9644058 12038577
10.147002 5.8780003 4.0264058 333924
10.122002 5.8660002 4.0384059 333924
9.9510021 5.7950001 4.1104054 595811
9.906002 5.7750001 4.1294055 662878
10.193002 5.901 3.9614058 399456
10.078002 5.842 4.0164056 137323
10.282001 5.9549999 3.8694057 10788510
10.149002 5.8790002 3.9394057 6757
10.129002 5.8660002 3.9504056 203108
9.9820023 5.803 4.0174055 6184544
10.288002 5.9400001 3.8324056 10920096
10.187002 5.8920002 3.8824058 7009
10.156002 5.882 3.8954058 334432
10.085002 5.848 3.9304056 334177
9.920002 5.7730002 4.0064058 465505
9.8710022 5.7540002 4.0284057 268650
9.781002 5.7160001 4.0674057 335974
10.310001 5.9250002 3.7884057 14076871
10.146002 5.875 3.8584056 399710
9.8990021 5.7680001 3.9734056 531553
9.8290014 5.7379999 4.0054059 532586
9.7420015 5.6989999 4.0444055 204394
10.259002 5.9169998 3.7604058 14800855
10.112001 5.8610001 3.8284056 7761
9.9210014 5.7719998 3.9224057 5593697
9.8920021 5.7639999 3.9344056 5397083
9.8690014 5.7530003 3.9454057 6053991
10.178001 5.901 3.7394056 12563373
9.6720018 5.6620002 3.9934056 6512729
10.161002 5.8930001 3.6964056 9669249
10.067001 5.842 3.7494056 72534
10.040002 5.8309999 3.7624056 203097
10.016002 5.8190002 3.7754056 333914
9.913002 5.776 3.8264058 465229
9.7740021 5.7129998 3.8954058 73062
9.6800022 5.6599998 3.9464056 6052949
10.113002 5.862 3.6734056 12761262
9.8340015 5.737 3.8184056 334680
9.7480021 5.7090001 3.8564057 335197
9.9440022 5.7909999 3.7104056 72534
9.8710022 5.756 3.7494056 137301
9.9620018 5.7870002 3.6534057 13550523
9.7890015 5.7210002 3.7394056 4538933
9.7680016 5.6789999 3.7674057 6709848
9.9740019 5.7670002 3.6094058 3353902
10.013001 5.789 3.5294056 9471868
10.001001 5.7740002 3.5414057 3222829
9.9950018 5.7490001 3.4994056 8619653
9.9960022 5.7530003 3.3654056 7830396
9.9990015 5.737 3.3734057 8092280
10.003002 5.7210002 3.3814056 8488069
9.9970016 5.7200003 3.3174057 1780568
10.031002 5.7140002 3.2424057 4214124
10.000002 5.7259998 3.1754057 8423307
10.011002 5.7360001 3.0894058 6251365
10.009002 5.7210002 3.1014056 8489095
10.038002 5.7080002 3.1004057 7632754
10.002002 5.7930002 2.9704056 11711140
10.002002 5.7290001 3.0164056 9013648
10.020001 5.7160001 3.0214057 9999506
10.013001 5.7259998 2.9364057 1584247
10.029002 5.7129998 2.9414058 9346215
10.010002 5.737 2.8434057 1387101
10.017002 5.7210002 2.8534057 2110821
10.047002 5.711 2.8514056 6187907
10.055002 5.7090001 2.7604058 8883334
10.028002 5.7129998 2.6664057 8948108
10.032001 5.711 2.5664058 10110
10.023002 5.7249999 2.4524057 8554384
10.036002 5.7119999 2.4604056 8620179
10.036002 5.7140002 2.3484056 8225671
10.091002 5.7179999 2.3294058 12694953
10.023002 5.763 4.2694058 8360349
10.030002 5.737 4.2204056 10860481
9.9580021 5.777 4.2414055 7439243
9.9940014 5.776 4.2044058 6846846
10.023002 5.7329998 4.1474056 13424861
10.013001 5.7740002 4.1664057 7175293
9.9840021 5.8120003 4.1864057 11976891
10.198002 5.8769999 4.2054057 14607077
9.8460016 5.697 4.1054058 8162702
10.041002 5.7730002 4.1304059 13752287
10.025002 5.7909999 4.1404057 13290956
10.018002 5.8099999 4.1494055 13029322
10.128002 5.8670001 4.1704059 12634315
10.051002 5.7709999 4.0954056 6186871
10.007002 5.8210001 4.1234055 922651
10.029002 5.743 4.0444055 10597053
10.022002 5.7800002 4.0634055 6845054
10.270001 5.914 4.1104054 12886943
10.052002 5.7639999 4.0164056 9346468
9.9830017 5.783 4.0324059 7832201
10.030002 5.744 3.9684057 11189959
10.061002 5.7730002 3.9814057 7701127
10.032001 5.7820001 3.9884057 9477536
9.9700022 5.7810001 3.9944057 7108991
10.034001 5.7779999 3.9484057 7767176
9.9950018 5.783 3.9554057 7766919
10.042002 5.7459998 3.8994057 11189959
10.043002 5.7649999 3.9094057 9478568
10.034001 5.7800002 3.9184058 7964554
10.063002 5.7860003 3.8844056 11648190
10.066002 5.8049998 3.8954058 11912132
10.297002 5.934 3.9314058 4208668
10.289001 5.947 3.9394057 6776898
10.043002 5.7719998 3.8534057 7766404
10.045002 5.7189999 3.7974057 12041663
10.042002 5.7360001 3.8074057 12503497
10.037002 5.7519999 3.8184056 11385536
10.158002 5.8439999 3.8474057 12700359
10.263001 5.9419999 3.8824058 724737
10.030002 5.7329998 3.7874057 11976637
10.088002 5.79 3.8074057 12634313
10.244001 5.9359999 3.8324056 5794116
10.060001 5.8179998 3.6474056 1119245
9.847002 5.7730002 3.7144058 10530744
10.046001 5.8239999 3.6334057 11248021
10.036002 5.8330002 3.6434057 12366245
10.042002 5.79 3.5824056 4404520
9.986002 5.8460002 3.6404057 10195333
9.9770021 5.855 3.6494057 13090483
9.8740015 5.7919998 3.6644056 8287087
9.7930021 5.7779999 3.6944056 3486254
10.037002 5.7870002 3.5574057 11773849
10.053001 5.8000002 3.5274057 8220771
10.034001 5.783 3.5294056 10590606
10.058002 5.7950001 3.4644058 9012604
10.014002 5.8150001 3.5024056 8683639
10.020001 5.8130002 3.4694057 8815225
10.004002 5.8099999 3.4474056 12631219
10.059002 5.802 3.3704057 9407108
10.013001 5.8109999 3.4064057 8617592
10.009002 5.8109999 3.3684056 8420467
10.019002 5.8140001 3.3234057 8091502
10.007002 5.8109999 3.3314056 7959916
9.9840021 5.8000002 3.3434057 7696745
10.017002 5.8150001 3.2854056 11315359
10.005002 5.816 3.2954056 11578531
9.9950018 5.8039999 3.2984056 11973289
9.9840021 5.7969999 3.3054056 12301741
10.065001 5.803 3.1984057 7763312
10.012002 5.816 3.2444057 9407619
10.002002 5.809 3.2504058 9999499
9.9900017 5.8070002 3.2594056 11249566
9.9820023 5.7849998 3.2584057 2436431
10.064002 5.7990003 3.1574056 8092277
9.9970016 5.8109999 3.2164056 7894898
9.986002 5.803 3.2224057 8158324
9.9820023 5.7740002 3.2174056 403046
9.9890022 5.8039999 3.1744056 8421500
9.9820023 5.7880001 3.1764057 5988984
10.054002 5.8239999 3.0774057 7697519
10.004002 5.8120003 3.1184056 9079172
9.986002 5.789 3.1284056 9014155
10.060001 5.8210001 3.0224056 6908003
9.9840021 5.7709999 3.0794058 7173752
9.9930019 5.7620001 3.0214057 7305854
10.051002 5.8270001 2.9264057 11841703
10.010002 5.8140001 2.9614058 11775910
9.9900017 5.7740002 2.9754057 7042420
9.9870014 5.7880001 2.9304056 4673390
10.049002 5.8309999 2.8204057 6447455
9.9960022 5.7639999 2.8684056 271731
9.9920015 5.796 2.8094056 6578268
10.007002 5.7540002 2.6814058 8486267
9.9980021 5.7940001 2.6224058 8290181
9.9970016 5.7719998 2.5624056 1651042
9.9980021 5.7709999 2.4974058 2307177
9.814002 5.6999998 4.8094058 541841
9.7110014 5.6430001 4.8164058 9674652
9.8310022 5.6999998 4.7084055 10918026
9.781002 5.6799998 4.7224054 536697
9.7160015 5.6430001 4.7434058 9799562
10.163002 5.8410001 4.5814056 1707548
10.297002 5.9200001 4.4984055 5984845
10.217002 5.8579998 4.5344057 8818079
10.209002 5.8559999 4.5034056 599930
10.149002 5.8299999 4.4904056 337531
10.013001 5.7690001 4.5024056 9085
9.9190016 5.724 4.5014057 139636
10.057002 5.7979999 4.4144058 3617561
9.939002 5.8060002 4.3974056 4014383
9.736002 5.6220002 4.5004058 5852219
10.141002 5.9310002 4.2714057 4605751
10.138001 5.9089999 4.2804055 2631961
10.092002 5.8860002 4.2994056 3948073
9.9960022 5.8439999 4.3354058 2763796
10.071002 5.8610001 4.2754059 6185841
9.8450022 5.71 4.3784056 4866098
9.9070015 5.7639999 4.3084059 5592151
9.762002 5.6469998 4.3814058 3678501
9.7610016 5.625 4.3894057 6444885
10.263001 5.9580002 4.0644054 12433587
10.011002 5.829 4.1784058 137826
10.016002 5.8270001 4.1344056 792154
9.8240023 5.7480001 4.2114058 269160
10.265002 5.9619999 3.9724057 12104625
10.020001 5.8280001 4.0914059 6119259
10.188002 5.9029999 3.9314058 202325
9.8220015 5.7420001 4.0944057 465511
10.110002 5.8650002 3.9234056 202847
10.057002 5.8429999 3.9464056 333924
9.9580021 5.7990003 3.9924057 6512217
9.8370018 5.7470002 4.0454059 269158
9.7890015 5.7290001 4.0654058 729704
9.7200022 5.6659999 4.1094055 7236704
10.185001 5.9289999 3.7684057 13616317
10.123002 5.8699999 3.8144057 137566
9.9880018 5.8120003 3.8784056 399969
9.9110022 5.7800002 3.9144056 4147553
10.090002 5.8540001 3.7794056 334420
10.065001 5.8410001 3.7924056 334167
10.036002 5.829 3.8064058 333914
9.8770018 5.763 3.8814056 5986133
10.036002 5.829 3.7564056 137818
9.9550018 5.7930002 3.7964056 333664
9.8420019 5.75 3.8484056 5920851
9.7920017 5.7280002 3.8724058 531550
9.8190022 5.7360001 3.8094056 269151
9.7660017 5.7140002 3.8344057 138074
9.9190016 5.7789998 3.7094057 401238
9.8930016 5.7670002 3.7224057 202842
9.9550018 5.7680001 3.6484056 3288110
9.8550014 5.7470002 3.6874056 4078901
9.9730015 5.8039999 3.4974058 8881018
10.016002 5.7080002 3.5414057 8553082
9.9820023 5.744 3.4664056 9474703
9.986002 5.743 3.3994057 9408910
9.9910021 5.7270002 3.4074056 8686218
10.007002 5.7200003 3.3404057 2765900
9.9890022 5.7490001 3.2594056 1520239
9.9920015 5.7329998 3.2684057 2899833
10.006001 5.7189999 3.2744057 2832737
9.9920015 5.7420001 3.1884058 465751
9.9990015 5.7270002 3.1964056 5726852
10.030002 5.7150002 3.1964056 3226207
9.9970016 5.737 3.1124058 6381158
10.031002 5.71 3.1214056 9672338
9.9990015 5.7319999 3.0374057 7369076
10.011002 5.7179999 3.0444057 8291203
10.041002 5.7080002 3.0434058 6448481
10.002002 5.7270002 2.9564056 1715826
10.024002 5.7150002 2.9594057 6648971
9.9830017 5.783 2.8294058 1122124
10.014002 5.724 2.8664057 860778
10.038002 5.7129998 2.8684056 4740720
10.014002 5.789 2.7194057 8551548
10.052002 5.7090001 2.6734056 14472916
10.008001 5.7280002 2.5684056 993384
10.058002 5.71 2.5704057 1727915
10.042002 5.7119999 2.3564057 8883345
10.166002 5.8109999 4.4824057 297718
10.208002 5.8330002 4.4894056 6797018
10.063002 5.7620001 4.4214058 11385288
10.166002 5.8060002 4.4354057 5214146
10.211001 5.8280001 4.4434056 3974636
10.266002 5.8499999 4.4494057 6526931
10.265002 5.8720002 4.4584055 6640986
10.206002 5.8379998 4.4074059 328460
10.046001 5.7410002 4.3344059 10926789
10.051002 5.7639999 4.3444057 6706518
10.023002 5.737 4.2954059 10596795
10.048002 5.7610002 4.3044057 8619664
10.023002 5.7340002 4.2554059 10332598
10.050002 5.7579999 4.2644057 8755107
10.015002 5.7270002 4.2164059 11057088
10.053001 5.7550001 4.2254057 9807022
10.042002 5.7730002 4.2354054 6188661
9.9480019 5.7779999 4.2454057 7702928
10.040002 5.7470002 4.1874056 10730176
10.040002 5.7670002 4.1974058 7834253
10.012002 5.7820001 4.2074056 8819607
10.034001 5.7420001 4.1444058 13951206
10.026002 5.7789998 4.1644058 8293002
10.130002 5.862 4.1934056 11910591
10.218001 5.901 4.2034059 590606
10.041002 5.7589998 4.1134057 9543594
10.022002 5.8109999 4.1414056 13358288
10.040002 5.763 4.0754056 9543594
10.041002 5.7810001 4.0844059 4410204
10.007002 5.789 4.0924058 3883092
10.050002 5.7810001 4.0424056 10068650
10.028002 5.7909999 4.0504055 11712962
10.256001 5.9299998 4.0904055 12419973
10.034001 5.756 3.9994056 10334392
10.047002 5.7800002 4.0104055 9477536
10.036002 5.7940001 4.0194058 11713724
10.044002 5.77 3.9714057 7306627
10.045002 5.79 3.9814057 11845569
10.262002 5.9460001 4.0274057 12747654
10.032001 5.7589998 3.9404056 10004913
10.283002 5.948 3.9944057 11504765
10.252002 5.9489999 4.0004058 12029060
10.257002 5.9489999 3.9684057 6976331
10.256001 5.9499998 3.9424057 7040841
10.277001 5.9190001 3.8944056 8028785
10.301002 5.954 3.9074056 6973504
10.228002 5.8870001 3.8124056 9279890
9.6710014 5.704 3.8774056 12765900
9.6740017 5.7020001 3.8664057 12897483
10.201002 5.8930001 3.7544057 5728344
10.166002 5.8839998 3.7124057 4804927
9.6970015 5.7090001 3.8104057 3619928
10.108002 5.8839998 3.6754057 10326921
10.011002 5.8499999 3.7064056 14011075
9.7110014 5.7249999 3.7854056 1121345
10.076002 5.8629999 3.6534057 13024692
10.037002 5.8379998 3.6324058 11511193
10.031002 5.8150001 3.5974057 13616569
9.9190016 5.8169999 3.6614056 12828081
9.7700014 5.7620001 3.7174056 5460045
10.023002 5.8150001 3.5724056 7627859
9.9440022 5.8390002 3.6314056 12892846
9.9310017 5.836 3.6374056 12958639
9.8900023 5.823 3.6544056 11182228
9.8780022 5.822 3.6614056 12169123
9.8640022 5.816 3.6664057 12432551
9.7860022 5.7680001 3.6894057 3687234
10.022002 5.8169999 3.4794056 8946811
9.9700022 5.7919998 3.4654057 8551798
10.003002 5.8210001 3.4154058 8420213
9.9810019 5.7940001 3.4204056 9012089
10.013001 5.816 3.3664057 9012604
10.001001 5.8190002 3.3774056 9144191
9.9900017 5.8109999 3.3824058 8946557
9.9810019 5.7860003 3.3804057 6907489
10.059002 5.8080001 3.2844057 10394257
9.9960022 5.8150001 3.3354056 7696744
9.986002 5.8060002 3.3404057 8223088
9.979002 5.7810001 3.3384056 7961469
10.055002 5.8140001 3.2504058 10789015
10.012002 5.8270001 3.2874057 11512738
9.9920015 5.8109999 3.2984056 11973289
9.9760017 5.7789998 3.3034058 991327
10.002002 5.8280001 3.2494056 10065292
9.9920015 5.8190002 3.2554057 10854808
10.040002 5.8379998 3.1744056 8092277
9.9970016 5.8120003 3.2054057 7697519
9.9890022 5.7990003 3.2094057 7829614
9.9820023 5.783 3.2114058 1780066
10.052002 5.8210001 3.1134057 8355449
10.067001 5.8049998 3.0494056 7565933
9.9940014 5.823 3.1134057 7894898
9.9910021 5.803 3.1134057 7039844
9.9850016 5.7870002 3.1164057 6712421
9.9800014 5.7719998 3.1194057 7502971
9.986002 5.79 3.0664058 6776420
9.9850016 5.7680001 3.0654056 7371645
10.060001 5.8150001 2.9564056 11907493
9.9930019 5.8099999 3.0144057 11710117
9.9930019 5.79 3.0144057 10066068
10.051002 5.8260002 2.8494058 7500143
9.9930019 5.802 2.9004056 8618881
9.9940014 5.7810001 2.9014056 1582442
10.000002 5.7550001 2.8964057 204928
9.9900017 5.802 2.8464057 7171691
9.9940014 5.7600002 2.8464057 468859
10.028002 5.8369999 2.7494056 13550001
9.9910021 5.8080001 2.7854056 8947840
9.9970016 5.7660003 2.7854056 7437433
9.9930019 5.8010001 2.7244058 8487558
