# .PCD v0.7 - Point Cloud Data file format
VERSION 0.7
FIELDS x y z rgb
SIZE 4 4 4 4
TYPE F F F U
COUNT 1 1 1 1
WIDTH 1298
HEIGHT 1
VIEWPOINT 0 0 0 1 0 0 0
POINTS 1298
DATA ascii
0.91700178 10.338 2.5294056 9276027
0.90600181 10.364 2.4564056 7763565
0.92100179 10.276 2.4354057 9602687
0.90400177 10.356 2.4044056 7959913
0.90600181 10.332 3.8204057 2629916
0.8790018 10.377 3.7944057 9011063
0.83300179 10.386 3.7804058 2761761
0.8050018 10.37 3.7424057 2959135
0.87000179 10.381 3.7414057 7630173
0.8790018 10.4 3.6044056 5921369
0.79200178 10.386 3.5714056 2368297
0.8740018 10.399 3.5724056 5066061
0.8370018 10.409 3.5574057 2170917
0.87600178 10.397 3.5364056 5263440
0.87800181 10.397 3.5054057 5395026
0.91400182 10.331 3.4894056 9408907
0.89900178 10.378 3.4814057 7566705
0.79000181 10.393 3.4354057 2564381
0.81100178 10.39 3.4114056 2302757
0.9110018 10.378 3.4184058 8818051
0.84100181 10.386 3.3874056 2763308
0.80200177 10.386 3.3694057 2106156
0.9110018 10.31 3.3864057 7236705
0.80300182 10.381 3.3324056 1842984
0.91200179 10.356 3.3444057 9013889
0.89300179 10.384 3.3344057 8091763
0.78900182 10.395 3.2844057 2434092
0.8740018 10.391 3.2474058 5526869
0.79200178 10.378 3.2084057 2303014
0.80100179 10.386 3.1654058 2500395
0.90400177 10.27 3.1854057 1512214
0.90300179 10.369 3.1764057 7829617
0.9110018 10.314 3.1414056 9014401
0.86400181 10.391 3.1084056 4276286
0.78200179 10.38 3.0654056 1973792
0.91300178 10.291 3.0974057 2239005
0.91800177 10.341 3.0934057 9474696
0.89900178 10.363 3.0814056 8749691
0.81100178 10.387 3.0294056 2894641
0.83600181 10.39 2.9964056 2500136
0.78300178 10.378 2.9154058 2171170
0.81900179 10.384 2.8874056 2434089
0.81600177 10.382 2.8334057 2302503
0.91300178 10.295 2.8554056 4142891
0.81600177 10.381 2.7804058 2499625
0.81700182 10.382 2.7304056 2104867
0.91400182 10.301 2.7504058 9207927
0.83400178 10.388 2.6254058 3486520
0.74800181 10.357 2.5144057 6247767
0.91200179 10.293 2.5874057 10524813
0.86800182 10.382 2.5344057 5131075
0.90400177 10.355 2.5084057 6118739
0.82600182 10.388 2.4454057 2892572
0.9110018 10.351 2.4554057 6776669
0.8830018 10.242 2.4074056 8223335
0.90000182 10.348 4.0724058 9799281
0.89800179 10.358 4.0494056 10063477
0.90400177 10.361 4.0284057 9472876
0.86300182 10.391 4.0154057 6117706
0.88700181 10.374 3.9054058 8486006
0.79600179 10.362 3.8424056 2959912
0.89300179 10.354 3.8474057 9539199
0.90900183 10.358 3.7794056 9670783
0.8420018 10.391 3.7534056 2433830
0.87600178 10.376 3.7274058 7104354
0.78700179 10.358 3.6934056 4013624
0.90300179 10.333 3.6344056 9477285
0.8050018 10.386 3.5504057 2170918
0.9200018 10.319 3.5654056 5986383
0.84500182 10.385 3.5284057 3026224
0.82000178 10.385 3.4744058 1775907
0.91200179 10.324 3.4784057 9409675
0.83400178 10.39 3.3974056 2105123
0.79700178 10.387 3.3314056 1711398
0.91900182 10.298 3.3564057 3157811
0.79800183 10.384 3.1864057 2237222
0.85400182 10.38 3.1694057 3947840
0.81500179 10.387 3.0944057 2763822
0.9110018 10.341 3.1064057 9671309
0.86700177 10.372 3.0764058 6380890
0.79700178 10.376 3.0364056 2237993
0.89500183 10.366 3.0414057 7960174
0.83600181 10.382 2.9514058 2105378
0.79000181 10.374 2.9254057 2105126
0.78500181 10.372 2.8724058 1973790
0.7860018 10.375 2.8124056 2105374
0.79800183 10.377 2.7634056 2367784
0.76900178 10.363 2.6884058 2434340
0.90100181 10.273 2.7424057 9799807
0.8650018 10.369 2.6944056 5657936
0.84700179 10.386 2.6774056 5394513
0.79200178 10.376 2.6444056 2170657
0.78400183 10.379 2.5794058 5458245
0.87100178 10.372 2.5804057 5065281
0.80700183 10.386 2.5334058 3812906
0.87000179 10.371 2.5204058 4736829
0.84100181 10.381 2.4974058 3749164
0.80300182 10.384 2.4694057 2563607
0.86100179 10.215 2.5044057 10128000
0.91200179 10.278 2.5204058 8552561
0.8880018 10.347 2.4824057 6315862
0.80800182 10.382 2.4164057 3156514
0.90000182 10.271 2.4014056 7894370
0.84700179 10.405 4.2624059 3024420
0.9020018 10.355 4.2154055 7892592
0.86800182 10.4 4.2034059 7300449
0.89800179 10.341 4.0814056 9606532
0.90600181 10.335 4.0524058 9408120
0.88100183 10.383 4.0414057 7761767
0.85700178 10.393 3.9514058 3880750
0.8830018 10.36 3.9194057 8551800
0.85800183 10.393 3.9074056 4012082
0.90000182 10.317 3.8904057 6908243
0.89500183 10.334 3.8484056 10526350
0.87500179 10.375 3.8374057 7301984
0.7950018 10.372 3.8064058 2303007
0.81800181 10.381 3.7764056 2236712
0.88100183 10.373 3.7594056 7828076
0.80300182 10.373 3.7274058 2631717
0.89400178 10.352 3.6374056 8356989
0.91300178 10.344 3.6054056 9803408
0.9020018 10.384 3.5964057 8159093
0.87500179 10.398 3.5824056 5395026
0.91700178 10.354 3.5574057 9145476
0.79800183 10.396 3.4974058 2039588
0.91400182 10.347 3.5104058 9342858
0.90100181 10.377 3.5004058 7895671
0.87800181 10.397 3.4874058 5461073
0.80300182 10.395 3.4514058 2236710
0.81500179 10.394 3.4084058 2368550
0.89400178 10.376 3.3974056 9672846
0.83400178 10.392 3.3644056 2105125
0.9110018 10.287 3.3724058 1906706
0.9110018 10.344 3.3104057 8816511
0.81100178 10.396 3.2494056 3158325
0.91200179 10.315 3.2674057 8948348
0.89600182 10.378 3.2474058 7302507
0.91500181 10.325 3.2154057 9736583
0.91300178 10.327 3.1614056 9145730
0.90400177 10.354 3.1504056 8816769
0.83500183 10.396 3.1034057 2303013
0.91700178 10.335 3.1124058 9409162
0.90300179 10.358 3.1004057 10197138
0.89300179 10.382 3.0884056 7696750
0.82700181 10.394 2.9884057 2631468
0.89900178 10.357 2.9264057 9013634
0.82000178 10.389 2.8704057 2565675
0.90800178 10.296 2.8944056 6644045
0.91400182 10.331 2.8884056 9604220
0.91900182 10.314 2.8394058 9340026
0.89800179 10.359 2.8144057 6512987
0.81600177 10.391 2.7534056 10259075
0.82200181 10.388 2.6994057 9208189
0.89600182 10.262 2.7254057 9275514
0.91400182 10.304 2.7244058 7893091
0.89900178 10.353 2.6994057 6775641
0.83200181 10.388 2.5884056 8089708
0.91200179 10.286 2.6164057 8749170
0.89400178 10.359 2.5804057 6447445
0.87600178 10.376 2.5624056 6710106
0.85700178 10.392 2.5444057 2365717
0.8880018 10.257 2.5554056 9669502
0.90700179 10.296 2.5554056 9276027
0.9110018 10.326 2.5474057 8288364
0.86600178 10.382 2.4974058 4209715
0.83000177 10.388 2.4704056 2629657
0.92100179 10.314 2.5054057 7895401
0.90100181 10.356 2.4764056 6316118
0.91700178 10.29 2.4554057 8092010
0.91700178 10.317 2.4454057 7763045
0.89800179 10.36 2.4164057 6973018
0.87500179 10.375 2.3954058 4736059
0.91500181 10.315 2.3874056 7828577
0.9110018 10.331 4.5144057 1643536
0.82600182 10.387 4.4884057 3024168
0.91000181 10.328 4.4824057 1117192
0.89800179 10.358 4.4004059 8879739
0.79900181 10.372 4.2944055 3614247
0.81100178 10.374 4.2184057 2630435
0.79200178 10.374 4.1644058 7164496
0.8970018 10.355 4.1604056 9145728
0.89300179 10.35 4.1124058 9473153
0.80800182 10.371 3.8624058 2564389
0.89300179 10.31 3.8564057 6381645
0.81200182 10.367 3.8164058 2302506
0.79000181 10.364 3.7604058 2500130
0.74300182 10.315 3.7024057 4015673
0.78800178 10.38 3.6104057 2302501
0.78400183 10.384 3.5024056 2236707
0.89300179 10.361 3.5084057 7698290
0.80400181 10.385 3.4604056 1973539
0.83000177 10.386 3.4184058 2105124
0.79400182 10.389 3.3994057 2104862
0.82000178 10.387 3.3614056 2105384
0.85600179 10.391 3.3244057 3289652
0.81600177 10.388 3.3044057 2105642
0.89300179 10.357 3.2974057 8421755
0.8460018 10.385 3.2664056 3355191
0.89500183 10.363 3.2464056 8288376
0.80700183 10.387 3.1934056 2697774
0.80300182 10.389 3.1304057 2303786
0.86800182 10.37 3.1154056 6315097
0.80800182 10.387 3.0774057 2632751
0.89400178 10.272 3.0974057 4080698
0.83200181 10.383 3.0324056 2434342
0.89900178 10.275 3.0464056 3094054
0.8000018 10.386 2.9584057 2105125
0.90600181 10.291 2.9904056 10261901
0.82600182 10.385 2.9154058 2236963
0.8370018 10.388 2.8034058 4863536
0.8650018 10.372 2.7694056 5524297
0.8370018 10.382 2.7484057 4010283
0.78700179 10.379 2.7174056 5984072
0.81000179 10.383 2.6724057 7629157
0.90500182 10.285 2.7114058 10064516
0.89200181 10.334 2.6864057 7630174
0.83400178 10.383 2.6324058 5063743
0.89300179 10.262 2.6604056 9603709
0.8970018 10.346 2.6324058 7762534
0.81300181 10.382 2.5654056 4734522
0.89000177 10.269 2.6024058 8945779
0.81000179 10.388 2.5044057 3944492
0.87000179 10.366 2.4944057 5132100
0.79600179 10.382 2.4394057 2761242
0.8650018 10.233 2.4264057 8288362
0.87000179 10.408 4.7274055 6972245
0.90400177 10.357 4.7024055 6118477
0.79300177 10.373 4.5844059 3025200
0.84700179 10.398 4.5544057 3418921
0.79000181 10.374 4.5404058 3354421
0.90600181 10.356 4.4894056 10064768
0.8830018 10.392 4.4384055 7169374
0.86400181 10.398 4.3804059 4340022
0.81300181 10.383 4.3654056 2892833
0.8510018 10.399 4.3304057 2631204
0.8790018 10.374 4.2924056 7630436
0.79800183 10.381 4.2644057 5190970
0.89600182 10.33 4.2584057 10522756
0.87500179 10.374 4.2464056 7696230
0.89300179 10.336 4.1664057 10131336
0.87600178 10.38 4.1554055 7761761
0.79800183 10.381 4.1264057 5454645
0.79700178 10.368 3.9304056 2235673
0.88400179 10.359 3.8164058 8618103
0.77800179 10.356 3.7184057 2895653
0.8140018 10.381 3.6744056 2697765
0.80300182 10.39 3.6154056 2368296
0.7860018 10.388 3.5504057 1973023
0.91300178 10.336 3.5704057 9671817
0.79800183 10.392 3.3384056 1711397
0.91200179 10.327 3.3534057 9606029
0.79200178 10.387 3.2194057 1908256
0.89800179 10.354 3.2264056 8618107
0.8880018 10.378 3.2144058 7303531
0.88000178 10.378 3.0984056 4145470
0.88900179 10.349 3.0544057 6907234
0.8830018 10.375 3.0434058 5329489
0.85200179 10.382 3.0234056 3751481
0.88100183 10.373 2.9834056 5328720
0.84800178 10.382 2.9614058 3289648
0.83500183 10.387 2.8384056 6773586
0.89600182 10.269 2.8614056 9144447
0.91300178 10.308 2.8584056 9471870
0.8970018 10.353 2.8324056 6447451
0.81200182 10.388 2.7684057 9403510
0.9020018 10.285 2.8084056 8290166
0.73400182 10.358 2.6794057 6446167
0.88900179 10.259 2.7564056 8420465
0.82900178 10.389 2.6694057 8287087
0.91300178 10.3 2.7004056 9341050
0.89800179 10.345 2.6734056 7170396
0.8790018 10.362 2.6544056 5657935
0.83000177 10.391 2.6124058 9010552
0.9110018 10.288 2.6444056 8355182
0.8000018 10.394 2.5314057 9470334
0.82900178 10.392 2.4914057 4734776
0.91400182 10.285 2.5304058 8420975
0.84700179 10.384 2.4434056 3288613
0.89900178 10.262 2.4704056 8288875
0.91700178 10.295 2.4674056 8223596
0.92100179 10.321 2.4594057 7763817
0.89800179 10.263 2.4084058 7499612
0.91300178 10.32 2.3934057 7894370
0.89400178 10.36 4.9664059 10196880
0.7950018 10.369 4.9404058 3617075
0.81600177 10.386 4.8494058 3025190
0.89900178 10.31 4.8354058 3750196
0.89400178 10.31 4.7874055 6645084
0.78700179 10.371 4.5524058 3289655
0.82000178 10.375 4.5134058 1842978
0.8090018 10.366 4.4564056 2565921
0.84900182 10.37 4.4204059 4932159
0.81000179 10.377 4.4064054 2629918
0.7860018 10.364 4.3504057 6046274
0.84500182 10.371 4.3214059 4340279
0.8050018 10.373 4.3074055 3286821
0.78400183 10.362 4.2494059 6374730
0.82400179 10.37 4.2124057 2105633
0.78300178 10.36 4.1454058 4072224
0.8420018 10.37 4.1144056 3813941
0.80600178 10.373 4.0994058 2827292
0.82700181 10.372 4.0584059 2629153
0.85400182 10.366 4.0154057 5722959
0.81900179 10.37 4.0004058 2696485
0.81300181 10.364 3.9454057 2367009
0.7860018 10.368 3.8784056 4407596
0.80100179 10.369 3.8274057 2631721
0.79000181 10.358 3.7134056 2303004
0.79200178 10.374 3.6564057 2566183
0.79600179 10.388 3.5984056 2302504
0.8280018 10.389 3.5564058 2236710
0.79300177 10.392 3.5394056 2302503
0.85000181 10.379 3.5164056 3815996
0.8230018 10.389 3.5004058 2039332
0.85000181 10.386 3.4544058 4013122
0.80700183 10.383 3.4334056 1907746
0.8970018 10.286 3.4484057 6711898
0.82100183 10.39 3.3814056 1974052
0.80700183 10.391 3.3144057 2171949
0.89400178 10.278 3.2814057 10064530
0.89400178 10.275 3.2254057 9671312
0.8600018 10.372 3.1774056 5263188
0.8370018 10.387 3.1594057 2501159
0.7860018 10.382 3.1334057 2830126
0.8880018 10.335 3.1454058 8749693
0.79000181 10.385 3.0184057 3094318
0.87600178 10.255 3.0544057 9209729
0.89100182 10.281 3.0004058 9932936
0.89300179 10.339 2.9814057 7762281
0.88600183 10.263 2.9544058 9143420
0.8880018 10.329 2.8774056 8880759
0.86100179 10.235 2.8434057 8682603
0.89900178 10.282 2.8474057 8223347
0.88500178 10.266 2.7864056 8684410
0.87200183 10.246 2.7314057 9013112
0.88200182 10.329 2.7024057 8419687
0.82900178 10.383 2.6474056 5129280
0.8880018 10.342 2.6404057 7894374
0.85700178 10.38 2.6044056 4537912
0.89200181 10.275 2.6124058 8814706
0.89000177 10.327 2.5884056 7564385
0.84500182 10.385 2.5354056 3747883
0.87100178 10.244 2.5544057 10129797
0.9020018 10.308 2.5444057 7894374
0.87600178 10.374 2.4984057 4342328
0.89800179 10.305 2.4844058 7632229
0.88500178 10.351 2.4554057 6381911
0.87000179 10.37 2.4364057 5197637
0.90000182 10.306 2.4274056 7960163
0.8830018 10.351 2.3954058 6249549
0.84500182 10.407 5.1794057 3945005
0.8050018 10.381 4.9664059 3551022
0.90900183 10.317 4.9524055 6701875
0.7860018 10.363 4.9124055 2434345
0.90300179 10.316 4.8494058 7756362
0.7910018 10.371 4.8094058 2434346
0.89600182 10.367 4.7814054 8948097
0.86400181 10.395 4.7674055 4275770
0.81800181 10.389 4.7554059 2302504
0.79200178 10.368 4.6974058 2631468
0.9020018 10.316 4.5764055 8347988
0.88400179 10.265 4.5284057 8871249
0.87500179 10.4 4.5044055 5983563
0.88200182 10.374 4.4564056 7762535
0.79800183 10.373 4.3184056 4271405
0.90100181 10.302 4.2634058 9004119
0.8970018 10.354 4.2524056 9473152
0.8000018 10.383 4.2104058 5125176
0.89400178 10.316 4.1464057 9205610
0.89300179 10.31 4.0914059 8225130
0.79300177 10.376 4.0384059 4077108
0.80200177 10.371 3.9834056 2170909
0.89300179 10.307 3.9224057 6184264
0.81300181 10.373 3.7604058 2302505
0.8050018 10.374 3.6984057 3355694
0.87800181 10.342 3.6864057 5461596
0.80200177 10.39 3.5774057 2170918
0.8090018 10.392 3.5224056 1907746
0.87600178 10.391 3.4394057 6184792
0.8140018 10.388 3.3514056 1316890
0.8230018 10.39 3.2974057 4013625
0.81800181 10.389 3.2354057 5592400
0.82700181 10.392 3.1824057 4738374
0.83600181 10.389 3.1314056 2106405
0.89800179 10.356 3.1224058 7171178
0.82500178 10.383 3.0214057 3028012
0.9110018 10.328 3.0354056 8551283
0.81800181 10.388 2.9614058 6053206
0.85400182 10.382 2.9294057 4079168
0.81300181 10.389 2.9034057 2565927
0.90600181 10.319 2.9244056 9076854
0.83300179 10.389 2.8544056 6248015
0.89300179 10.349 2.8484056 6184280
0.89300179 10.256 2.8284056 10262411
0.9020018 10.296 2.7594056 9867912
0.87600178 10.362 2.7144058 5658192
0.85900182 10.382 2.6964056 6379605
0.89200181 10.346 2.6714056 7104604
0.87200183 10.364 2.6524057 5394764
0.84400183 10.379 2.6294057 3616556
0.89900178 10.271 2.6524057 8683120
0.90400177 10.323 2.6314056 7433310
0.8970018 10.346 2.6164057 7630948
0.84700179 10.379 2.5714056 4077361
0.90700179 10.325 2.5754056 7828069
0.88000178 10.366 2.5404058 5526600
0.8880018 10.345 2.5004058 6381398
0.88900179 10.241 2.5004058 8748913
0.90900183 10.297 2.4844058 7763302
0.91300178 10.324 2.4734056 7960683
0.90000182 10.262 2.4434056 8354668
0.90900183 10.29 2.4344056 8289129
0.90900183 10.315 2.4224057 8025956
0.89900178 10.337 2.4054058 6907477
0.89200181 10.256 2.3894057 8486507
0.90500182 10.285 2.3834057 8223335
0.8370018 10.417 5.4044056 3485997
0.90900183 10.318 5.3834057 3423782
0.89000177 10.392 5.3074055 9803138
0.84800178 10.412 5.2934055 3287843
0.78300178 10.37 5.2844057 3223337
0.8970018 10.381 5.2564058 10855311
0.8000018 10.387 5.2314057 3682096
0.8510018 10.412 5.1844058 4273711
0.78900182 10.37 5.1744056 3551280
0.8740018 10.391 5.1374059 5722434
0.83500183 10.411 5.1244059 2170905
0.89800179 10.352 5.0924058 9210745
0.90300179 10.357 5.0404058 9276025
0.87200183 10.396 5.0254059 5590338
0.88000178 10.374 4.9684057 7433822
0.81500179 10.387 4.8294058 2170917
0.90000182 10.311 4.8124056 7295559
0.89400178 10.351 4.7474055 8947325
0.8790018 10.379 4.6834059 7104858
0.84900182 10.4 4.6704059 2368038
0.8140018 10.385 4.5474057 2302504
0.89800179 10.325 4.5294056 9337453
0.8970018 10.341 4.4154058 10063490
0.88000178 10.375 4.4024057 7565153
0.89300179 10.352 4.3524055 9738120
0.79000181 10.373 4.3104057 6901070
0.89400178 10.308 4.3044057 7493963
0.77600181 10.36 4.2494059 9136494
0.78700179 10.366 4.1934056 6308936
0.81100178 10.377 3.9064057 2827561
0.8790018 10.324 3.7754056 10131080
0.88200182 10.36 3.7084057 8156534
0.8140018 10.37 3.6744056 2500386
0.90100181 10.289001 3.6784058 1781043
0.89400178 10.317 3.6664057 8428722
0.87500179 10.381 3.5254056 4276554
0.9110018 10.341 3.4984057 7762545
0.8970018 10.362 3.4844058 6381923
0.81100178 10.393 3.4324057 7172967
0.79800183 10.388 3.3684056 1316637
0.80300182 10.388 3.3134058 4343620
0.8740018 10.251 3.3424056 9145474
0.91400182 10.306 3.3424056 9736076
0.85200179 10.382 3.2844057 3683906
0.81700182 10.39 3.2634056 4474175
0.83100182 10.386 3.2184057 3750203
0.8880018 10.347 3.2114058 7038830
0.8650018 10.364 3.1934056 6381670
0.81300181 10.39 3.1564057 3948860
0.89200181 10.332 3.1664057 8025714
0.86400181 10.371 3.1364057 5065810
0.84300178 10.388 3.1184056 2105894
0.7770018 10.381 3.0864058 3422771
0.89300179 10.28 3.1334057 9933967
0.89400178 10.335 3.1124058 9275521
0.84000182 10.388 3.0624056 2501669
0.8970018 10.275 3.0804057 9472901
0.80100179 10.389 2.9824057 3619119
0.89800179 10.325 2.9464056 9473404
0.88900179 10.347 2.9324057 7565412
0.79300177 10.385 2.8634057 2630431
0.89300179 10.254 2.9174056 8946807
0.89600182 10.334 2.8844056 7959657
0.83500183 10.386 2.8274057 5128503
0.90100181 10.287 2.8494058 9473412
0.90900183 10.316 2.8414056 9339512
0.89200181 10.335 2.8234057 7039839
0.8790018 10.355 2.8064058 6579036
0.86400181 10.375 2.7894056 4997696
0.82600182 10.387 2.7634056 8351079
0.88100183 10.253 2.7974057 8945780
0.89100182 10.282 2.7894056 9276804
0.89600182 10.31 2.7794056 9143417
0.87700182 10.354 2.7494056 6380630
0.86900181 10.376 2.7334056 6446425
0.8230018 10.385 2.7044058 6971226
0.90500182 10.289001 2.7384057 8881018
0.83500183 10.391 2.6514056 9010553
0.90100181 10.288 2.6844056 9670785
0.90100181 10.313 2.6724057 8289389
0.88500178 10.359 2.6414056 6447706
0.81500179 10.387 2.5884056 8681845
0.87200183 10.251 2.6354058 9339767
0.89000177 10.356 2.5944057 6907739
0.85700178 10.372 2.5684056 4209972
0.86600178 10.241 2.5844057 9537660
0.90300179 10.278 2.5874057 9012085
0.90600181 10.304 2.5764058 7696995
0.8510018 10.388 2.5024056 2893342
0.87800181 10.242 2.5404058 8879729
0.90300179 10.274 2.5394056 8748913
0.91000181 10.301 2.5294056 8092524
0.90700179 10.325 2.5154057 8157549
0.8970018 10.348 2.4984057 6315861
0.8790018 10.368 2.4774058 5132101
0.8510018 10.385 2.4534056 3551785
0.91200179 10.301 2.4794056 7829608
0.90400177 10.325 2.4624057 8157549
0.8830018 10.369 2.4284058 4933950
0.84400183 10.384 2.3974056 2893603
0.8830018 10.25 2.4394057 7893604
0.90400177 10.28 2.4354057 8420715
0.91200179 10.307 2.4264057 8025956
0.89800179 10.329 2.4064057 7696993
0.82100183 10.224 2.3664057 8552300
0.89600182 10.267 2.3864057 7696991
0.9110018 10.296 2.3794057 8157542
0.8880018 10.394 5.7074056 9474688
0.90800178 10.331 5.6644058 4345904
0.83000177 10.421 5.6314058 2697254
0.9020018 10.329 5.6064057 5133631
0.87600178 10.41 5.5864058 7236704
0.82400179 10.414001 5.5734057 3814963
0.90600181 10.317 5.5434055 5528902
0.88200182 10.399 5.5234056 8618357
0.83800179 10.422 5.5094056 2630689
0.84900182 10.422 5.4524055 3222566
0.78800178 10.391 5.4434056 3355950
0.88200182 10.4 5.4034057 8750199
0.83900177 10.416 5.3904057 3420203
0.90100181 10.374 5.3534055 8488568
0.86800182 10.412 5.3384056 3157292
0.8000018 10.381 5.2644057 3875366
0.89500183 10.379 5.2314057 7567207
0.89900178 10.356 5.1704059 9144952
0.83200181 10.411 5.1424055 2826782
0.89500183 10.298 5.1204057 7820876
0.8000018 10.383 5.0774055 4663338
0.90400177 10.343 5.0484056 10523780
0.90000182 10.359 4.9854054 8947577
0.87800181 10.397 4.9714055 5460038
0.8370018 10.403 4.9584055 2170918
0.8970018 10.316 4.9334059 8744285
0.80800182 10.388 4.8924055 2170917
0.89600182 10.378 4.8634057 8290159
0.86300182 10.395 4.8504057 3683377
0.90000182 10.353 4.8094058 9078395
0.88000178 10.391 4.7964058 6249295
0.84300178 10.398 4.7824059 2039074
0.89500183 10.363 4.7474055 8685437
0.83200181 10.392 4.7214055 2302503
0.8970018 10.353 4.6294055 9342336
0.79400182 10.379 4.5894055 3158068
0.8970018 10.33 4.5784059 10128254
0.86200178 10.392 4.5534058 4144184
0.89400178 10.354 4.4504056 9079934
0.8740018 10.378 4.4374056 7103581
0.87600178 10.377 4.3794055 7235676
0.81000179 10.392 4.3514056 4139819
0.89400178 10.338 4.3314056 10065541
0.89800179 10.331 4.2774057 10325120
0.89400178 10.371 4.2664056 7961454
0.88000178 10.381 4.1964059 7433056
0.83500183 10.392 4.1184058 2171680
0.89400178 10.346 4.0944057 9408387
0.88500178 10.376 4.0824056 8157294
0.81200182 10.382 4.0514059 2629407
0.79900181 10.38 3.9864056 2894374
0.88000178 10.367 3.9054058 8288882
0.89300179 10.342 3.8594058 9802372
0.8790018 10.364 3.8474057 8288877
0.86900181 10.272 3.7554057 6315600
0.89600182 10.327 3.7494056 9277575
0.89000177 10.355 3.7384057 8948612
0.8740018 10.375 3.7244058 6906975
0.89800179 10.313 3.6984057 8167606
0.87700182 10.361 3.6724057 6642773
0.84400183 10.396 3.5874057 5133888
0.8970018 10.374 3.5604057 5855328
0.9160018 10.325 3.5304058 8486523
0.81000179 10.404 3.4524057 6383955
0.91400182 10.316 3.4774058 9276033
0.8970018 10.266 3.4344056 10459285
0.91700178 10.307 3.4294057 9342343
0.91200179 10.361 3.4074056 9605525
0.88900179 10.374 3.3914056 5789281
0.86900181 10.392 3.3754058 2369068
0.89900178 10.366 3.3484056 6579051
0.91500181 10.329 3.3184056 8486012
0.87600178 10.384 3.1654058 3750459
0.91200179 10.307 3.1604056 8947589
0.91400182 10.334 3.1504056 8881278
0.9020018 10.355 3.1354058 6776165
0.8830018 10.373 3.1184056 5263443
0.82200181 10.397 3.0764058 2963242
0.8280018 10.397 2.9634056 6448220
0.89600182 10.273 2.9964056 9735557
0.89800179 10.3 2.9854057 8814455
0.89500183 10.35 2.9614058 7236452
0.88200182 10.37 2.9454057 5657684
0.85600179 10.386 2.9244056 3092273
0.9160018 10.33 2.9244056 9603965
0.89600182 10.349 2.9054058 6249557
0.88500178 10.37 2.8894057 5395539
0.84900182 10.382 2.8654056 3617327
0.8970018 10.274 2.8854058 7762796
0.91200179 10.305 2.8794057 9406077
0.9110018 10.329 2.8674057 8551538
0.89200181 10.349 2.8484056 6250073
0.88200182 10.37 2.8334057 5657165
0.85400182 10.386 2.8104057 4075048
0.91500181 10.307 2.8284056 9406334
0.91400182 10.331 2.8154056 7434337
0.87800181 10.37 2.7784057 5853774
0.91900182 10.304 2.7824056 8486258
0.91300178 10.328 2.7674057 9274744
0.90100181 10.349 2.7504058 7366752
0.85300177 10.384 2.7084057 5590088
0.89300179 10.263 2.7364056 9407362
0.90100181 10.341 2.7024057 7433310
0.89000177 10.363 2.6854057 5855570
0.85700178 10.378 2.6604056 4340792
0.82500178 10.395 2.6344056 10589069
0.88700181 10.259 2.6864057 9208951
0.9110018 10.29 2.6834056 9473406
0.91300178 10.316 2.6714056 7895400
0.89400178 10.36 2.6394057 6513499
0.86700177 10.378 2.6154056 4012081
0.8370018 10.396 2.5904057 10391950
0.9020018 10.288 2.6294057 9012855
0.90400177 10.314 2.6174057 7434080
0.90100181 10.337 2.6044056 7564641
0.89000177 10.359 2.5864058 6447445
0.8650018 10.379 2.5634058 6051664
0.83200181 10.396 2.5374057 7299422
0.90900183 10.295 2.5814056 7960167
0.91000181 10.345 2.5554056 8552050
0.88600183 10.364 2.5324056 5592394
0.86400181 10.385 2.5094056 3617578
0.89600182 10.255 2.5444057 8616814
0.91000181 10.285 2.5364056 8420975
0.91300178 10.309 2.5254056 7961194
0.9110018 10.334 2.5104058 7367779
0.9020018 10.357 2.4934056 5921616
0.87600178 10.375 2.4694057 4473914
0.83800179 10.393 2.4394057 4668983
0.87000179 10.233 2.4964056 8880242
0.90600181 10.266 2.4984057 8223339
0.91200179 10.293 2.4874058 7763045
0.91000181 10.317 2.4744058 7763816
0.90700179 10.341 2.4594057 6710106
0.8970018 10.364 2.4414058 5855824
0.87100178 10.384 2.4164057 3683119
0.8650018 10.231 2.4494057 8617070
0.90400177 10.264 2.4524057 8289132
0.91700178 10.292 2.4444056 8026216
0.91700178 10.316 2.4324057 7894370
0.91300178 10.341 2.4154058 7039063
0.89200181 10.362 2.3934057 6644054
0.88100183 10.251 2.4044056 8091749
0.9110018 10.281 2.4044056 8223335
0.91500181 10.308 2.3924057 8025956
0.91500181 10.332 2.3784056 7631200
0.88400179 10.405 5.9414058 8290673
0.83500183 10.425 5.9274058 2369312
0.90900183 10.363 5.8924055 5988952
0.81600177 10.411 5.8624058 2697774
0.90700179 10.377 5.8264055 10001565
0.90500182 10.347 5.7604055 9673361
0.82600182 10.417 5.7294059 2829090
0.90500182 10.367 5.6284056 8621170
0.79400182 10.383 5.5344057 5720141
0.90900183 10.343 5.5034056 9206384
0.84300178 10.414001 5.4724054 1512730
0.90900183 10.339 5.4424057 9074031
0.78100181 10.368 5.4044056 8610407
0.89500183 10.392 5.3574057 7236960
0.90700179 10.365 5.3014059 9078391
0.84000182 10.414001 5.2734056 1907481
0.89600182 10.371 5.2284055 8356465
0.89800179 10.309 5.1794057 8150868
0.90000182 10.366 5.1044059 9080186
0.90400177 10.359 5.0464058 9473660
0.88100183 10.395 5.0314054 6511181
0.84400183 10.403 5.0194058 2435377
0.8600018 10.399 4.9604058 3025449
0.90400177 10.355 4.9214058 9867393
0.8790018 10.381 4.9084058 6907479
0.84900182 10.398 4.8954058 1907487
0.79900181 10.385 4.8834057 2565932
0.88200182 10.389 4.8434057 6841431
0.79900181 10.385 4.8184056 2565931
0.90000182 10.341 4.7974057 10063492
0.88100183 10.374 4.7844057 7631200
0.8140018 10.393 4.7584057 2302503
0.89300179 10.368 4.7304058 8422518
0.89600182 10.334 4.6744056 10064770
0.85800183 10.392 4.6474056 3354414
0.88000178 10.378 4.5964055 7433822
0.80600178 10.383 4.5704055 2499882
0.88600183 10.381 4.5354056 7763815
0.89600182 10.337 4.4854054 10130302
0.82400179 10.391 4.4464059 2368028
0.89400178 10.322001 4.4284058 10061947
0.90800178 10.367 4.3594055 9604991
0.89400178 10.331 4.3044057 10063744
0.90100181 10.356 4.2394056 9867139
0.8830018 10.377 4.2264056 8288878
0.89600182 10.324 4.1864057 10127740
0.88600183 10.291 4.1354055 6967874
0.89300179 10.334 4.1254058 10195333
0.8280018 10.385 4.0844059 2171422
0.81000179 10.382 4.0144057 2564897
0.89500183 10.331 3.9434056 10592144
0.88400179 10.356 3.9304056 8749179
0.8880018 10.296 3.8964057 7171413
0.89500183 10.334 3.8874056 10328714
0.88700181 10.36 3.8754058 8946809
0.79300177 10.372 3.7724056 8354656
0.8510018 10.378 3.7364056 7432012
0.89300179 10.29 3.7264056 9214377
0.84300178 10.378 3.6734056 8420200
0.81000179 10.386 3.6554058 4277033
0.89800179 10.286 3.6184056 10000793
0.9110018 10.324 3.6104057 9078913
0.89600182 10.372 3.5864058 6052704
0.84500182 10.399 3.5534058 6580829
0.8970018 10.276 3.5694056 9539724
0.91200179 10.314 3.5624056 8815748
0.90100181 10.365 3.5384057 6249830
0.80600178 10.394 3.4834056 5593935
0.89600182 10.275 3.4684057 9342347
0.89200181 10.382 3.4234056 5329490
0.81700182 10.399 3.3824058 1448223
0.91500181 10.316 3.4084058 9604489
0.86800182 10.392 3.2974057 3223602
0.81300181 10.393 3.2714057 6777181
0.9110018 10.319 3.2944057 9408390
0.8970018 10.339 3.2794056 9077893
0.84500182 10.394 3.2304056 5000519
0.91200179 10.341 3.1714056 7696750
0.87200183 10.375 3.1374056 4342087
0.90600181 10.289001 3.1344056 9933712
0.86900181 10.377 3.0774057 4672071
0.83900177 10.392 3.0554056 988942
0.91500181 10.317 3.0704057 9275522
0.88900179 10.358 3.0394056 6512736
0.87200183 10.378 3.0224056 4803656
0.83800179 10.391 2.9984057 6118997
0.89000177 10.259 3.0324056 9999245
0.90500182 10.315 3.0134056 8485490
0.89800179 10.338 2.9994056 7564904
0.8880018 10.36 2.9844058 6907236
0.87800181 10.38 2.9694057 3947323
0.83600181 10.393 2.9424057 2960938
0.88000178 10.257 2.9774058 9472385
0.89100182 10.362 2.9324057 5920596
0.8740018 10.382 2.9144056 3684924
0.82700181 10.392 2.8864057 3420463
0.9110018 10.29 2.9284058 10328464
0.86700177 10.377 2.8644056 4473405
0.8370018 10.393 2.8414056 7628380
0.9020018 10.28 2.8784056 7697003
0.90700179 10.306 2.8684056 9471870
0.9020018 10.355 2.8414056 6184280
0.88400179 10.374 2.8224056 5261893
0.90100181 10.276 2.8314056 5592653
0.90800178 10.303 2.8214056 8814967
0.90800178 10.328 2.8084056 7368287
0.89500183 10.349 2.7914057 6973278
0.8830018 10.371 2.7744057 5458760
0.85200179 10.387 2.7504058 5194299
0.87200183 10.244 2.7844057 9142131
0.90100181 10.276 2.7824056 5263175
0.91200179 10.304 2.7734056 8946809
0.90400177 10.327 2.7584057 9011315
0.88100183 10.371 2.7234056 4933699
0.8510018 10.388 2.7004056 6247761
0.87800181 10.251 2.7354057 8881527
0.90300179 10.307 2.7194057 7893091
0.90000182 10.331 2.7044058 8617066
0.8880018 10.353 2.6884058 6841691
0.87300181 10.375 2.6684058 4736320
0.83800179 10.392 2.6424057 8878967
0.90800178 10.272 2.6904056 9012085
0.91500181 10.298 2.6804056 8618354
0.90900183 10.321 2.6654058 7368798
0.90500182 10.346 2.6504056 7959912
0.87300181 10.364 2.6254058 5460810
0.85000181 10.384 2.6024058 3287332
0.8740018 10.247 2.6424057 9734268
0.89900178 10.278 2.6384056 8551791
0.90100181 10.328 2.6134057 8222315
0.89200181 10.352 2.5964057 7368033
0.84700179 10.392 2.5514057 4865851
0.87700182 10.247 2.5984056 9406330
0.89900178 10.277 2.5944057 9143671
0.90500182 10.327 2.5704057 7893350
0.89900178 10.351 2.5544057 8881015
0.8460018 10.392 2.5044057 3353123
0.8600018 10.234 2.5544057 10524298
0.89400178 10.266 2.5554056 9866881
0.90900183 10.294 2.5474057 8091753
0.91000181 10.319 2.5344057 7697510
0.90000182 10.342 2.5164056 6775899
0.88600183 10.365 2.4974058 5329736
0.8600018 10.385 2.4734056 3485992
0.8790018 10.244 2.5174057 9012085
0.89800179 10.272 2.5124056 8552304
0.91000181 10.3 2.5034056 8158316
0.90700179 10.324 2.4894056 7039325
0.89800179 10.347 2.4714057 6513240
0.8880018 10.371 2.4534056 5197637
0.84300178 10.389 2.4194057 3090209
0.87300181 10.238 2.4804056 8156776
0.90700179 10.269 2.4804056 8025960
0.90800178 10.294 2.4674056 8157803
0.9020018 10.344 2.4374056 7104859
0.8880018 10.367 2.4164057 6841434
0.85700178 10.387 2.3894057 3288362
0.88400179 10.244 2.4454057 8551534
0.90800178 10.323 2.4134057 8091750
0.9110018 10.275 2.4064057 7960163
0.90600181 10.3 2.3894057 8157542
0.88200182 10.402 6.3334055 8421753
0.89600182 10.376 6.2614055 10724508
0.87600178 10.403 6.1774058 7894380
0.86100179 10.407 6.1044059 4867906
0.8600018 10.421 6.0334058 4144698
0.86600178 10.415 5.9594059 5329735
0.81100178 10.403 5.9504056 2763819
0.9020018 10.353 5.9124055 10002065
0.81900179 10.404 5.8824058 2895405
0.86200178 10.416 5.8194056 4802377
0.9020018 10.321 5.7814054 5980984
0.89900178 10.356 5.6354055 8948092
0.89900178 10.331 5.5664058 9470328
0.88100183 10.395 5.5464058 5853514
0.78100181 10.376 5.5264058 8875634
0.89300179 10.374 5.4864058 7502445
0.89600182 10.315 5.4274058 8152158
0.79600179 10.388 5.3854055 7360597
0.89500183 10.345 5.3544059 9078907
0.87800181 10.398 5.3364058 5327429
0.77400178 10.367 5.3174057 11042692
0.90100181 10.326 5.2924056 8481889
0.89600182 10.309 5.2324057 7032644
0.8140018 10.392 5.1894054 3086877
0.89600182 10.358 5.1524057 8685171
0.89300179 10.307 5.0994058 7033157
0.89300179 10.376 5.0824056 8158835
0.8970018 10.323 5.0294056 9798004
0.77900177 10.361 4.8574057 2566188
0.89600182 10.321 4.8364058 9140074
0.86700177 10.391 4.8084059 4802111
0.89400178 10.332 4.7684054 9603199
0.81700182 10.389 4.7284055 2434089
0.89400178 10.334 4.7034059 9867137
0.8970018 10.331 4.6384058 9996925
0.82600182 10.387 4.5994058 1973539
0.88600183 10.295 4.5184054 8480602
0.80600178 10.379 4.3414059 3351331
0.83500183 10.383 4.2884059 2303011
0.8880018 10.294 4.2774057 8019023
0.89300179 10.336 4.2654057 10392712
0.89300179 10.352 4.1964059 9342337
0.87700182 10.287 4.0894055 8619889
0.8830018 10.361 4.0674057 8485745
0.89500183 10.34 4.0224056 9804423
0.87500179 10.358 4.0084057 8026219
0.85300177 10.372 3.9944057 4999492
0.81700182 10.378 3.9784057 2170910
0.89500183 10.325 3.9684057 9013629
0.83600181 10.378 3.9264057 4209704
0.88400179 10.285 3.9204056 10327179
0.83200181 10.373 3.8674057 5790284
0.88100183 10.289001 3.8574057 9736325
0.85500181 10.375 3.6494057 6315342
0.83600181 10.393 3.6344056 4606002
0.85000181 10.388 3.5914056 2698784
0.89400178 10.284 3.6004057 9210758
0.83900177 10.397 3.4764056 3028008
0.89500183 10.282 3.4924057 9408140
0.90100181 10.312 3.4824057 9078654
0.89500183 10.362 3.4594057 6710888
0.87700182 10.381 3.4434056 5921627
0.84500182 10.392 3.4234056 3356720
0.85300177 10.383 3.3774056 3881795
0.81600177 10.393 3.3564057 461580
0.83900177 10.388 3.3104057 1974304
0.90500182 10.301 3.2674057 9604489
0.89800179 10.349 3.2414057 7104614
0.88000178 10.367 3.2254057 6906990
0.8600018 10.385 3.2084057 3026991
0.81000179 10.393 3.1814058 5133131
0.90000182 10.323 3.1994057 9012868
0.8050018 10.391 3.1244056 1251094
0.88000178 10.267 3.1624057 9209729
0.9020018 10.325 3.1464057 8486520
0.85000181 10.384 3.0944057 2764585
0.90000182 10.301 3.1054056 8551799
0.89200181 10.345 3.0324056 7367783
0.86900181 10.363 3.0134056 6052443
0.8510018 10.383 2.9954057 4013368
0.89600182 10.289001 3.0114057 9603971
0.88900179 10.338 2.9844058 7696488
0.87700182 10.359 2.9684057 7236201
0.85800183 10.378 2.9504056 4013117
0.82400179 10.395 2.9264057 1447701
0.88000178 10.256 2.9724057 9406592
0.90500182 10.288 2.9684057 10130315
0.90000182 10.337 2.9424057 8749683
0.85900182 10.376 2.9034057 4408902
0.8230018 10.392 2.8784056 4143928
0.87700182 10.257 2.9234056 8814455
0.9020018 10.288 2.9194057 10065292
0.9020018 10.313 2.9064057 10326151
0.89500183 10.336 2.8914056 7499363
0.88700181 10.359 2.8764057 6316123
0.81800181 10.392 2.8274057 4535849
0.8740018 10.262 2.8714056 8223345
0.89400178 10.292 2.8664057 9407362
0.90400177 10.319 2.8574057 8616303
0.8880018 10.34 2.8384056 6447192
0.87800181 10.362 2.8224056 5789265
0.85800183 10.383 2.8024056 3943465
0.87500179 10.251 2.8294058 9801859
0.89800179 10.282 2.8244057 7237479
0.89300179 10.355 2.7844057 6381143
0.87300181 10.374 2.7644057 6445399
0.82200181 10.39 2.7324057 9668221
0.88700181 10.261 2.7864056 9341569
0.88400179 10.286 2.7724056 9341826
0.89800179 10.314 2.7644057 8552050
0.88900179 10.337 2.7474058 8616560
0.85700178 10.381 2.7104056 7366757
0.89000177 10.26 2.7444057 8552308
0.90300179 10.289001 2.7354057 8881018
0.90500182 10.314 2.7234056 8814193
0.85400182 10.379 2.6644056 4537914
0.86900181 10.248 2.6994057 8288362
0.9020018 10.304 2.6864057 8947062
0.8830018 10.351 2.6514056 7170656
0.8650018 10.373 2.6314056 4802113
0.8280018 10.391 2.6034057 9602434
0.87200183 10.254 2.6574056 9274231
0.89600182 10.283 2.6534057 8091753
0.89500183 10.309 2.6394057 7238241
0.85900182 10.378 2.5844057 4538168
0.81100178 10.395 2.5514057 9865349
0.86700177 10.248 2.6204057 9142645
0.89500183 10.279 2.6174057 8485741
0.9020018 10.304 2.6074057 8223339
0.89900178 10.329 2.5924056 7629921
0.8880018 10.352 2.5744057 7170653
0.86700177 10.374 2.5524056 6841692
0.83000177 10.395 2.5234056 6509906
0.8790018 10.254 2.5864058 9208951
0.90000182 10.308 2.5674057 7433823
0.89200181 10.332 2.5514057 9208953
0.85600179 10.227 2.5554056 10458505
0.89500183 10.259 2.5574057 9669502
0.91400182 10.311 2.5374057 7829608
0.85500181 10.38 2.4704056 4143922
0.85300177 10.227 2.5204058 9340024
0.89200181 10.258 2.5214057 8749170
0.91200179 10.286 2.5154057 8486768
0.89400178 10.335 2.4804056 6907485
0.8650018 10.382 2.4394057 4407094
0.85500181 10.227 2.4894056 9340537
0.89600182 10.257 2.4924057 8617327
0.85700178 10.38 2.4044056 4209462
0.9110018 10.328 2.4274056 8091751
0.84400183 10.228 2.4224057 8617327
0.91300178 10.286 2.4234056 8157542
0.90900183 10.311 2.4074056 8091749
0.85900182 10.232 2.4004056 7894370
0.89300179 10.26 2.4014056 7631198
0.90900183 10.288 2.3934057 8223335
0.85300177 10.233 2.3734057 8618093
0.89300179 10.262 2.3754058 8025956
0.87600178 10.395 6.9264059 8620162
0.81500179 10.403 6.9134059 3950672
0.89100182 10.35 6.8504057 13226970
0.87800181 10.393 6.7534056 9079944
0.8140018 10.404 6.6494055 3488579
0.78300178 10.392 6.4804058 9608359
0.89800179 10.296 6.4464059 14147032
0.90100181 10.378 6.3534055 11646383
0.89300179 10.382 6.2774057 9935507
0.78900182 10.389 6.2544055 5198677
0.8970018 10.382 6.1974058 10593176
0.8000018 10.401 6.1724057 4342086
0.89800179 10.368 6.1264057 11711915
0.86100179 10.413 6.1084056 4670527
0.81000179 10.412 6.0974054 2565675
0.79000181 10.388 6.0234056 3685440
0.90300179 10.354 5.9834056 9473150
0.80800182 10.396 5.8044057 3487553
0.89800179 10.367 5.7534056 8028023
0.89800179 10.321 5.6924057 8284771
0.8460018 10.409 5.6574059 527120
0.78800178 10.381 5.6504059 11317434
0.89800179 10.362 5.6044059 8488568
0.8970018 10.36 5.4634056 8488313
0.89900178 10.356 5.3974056 8816250
0.77600181 10.365 5.3634057 9728630
0.85400182 10.398 5.3034058 2039581
0.80800182 10.391 5.2934055 3678757
0.83800179 10.395 5.2314057 2435370
0.78400183 10.376 5.2214055 8082769
0.78400183 10.372 5.0824056 9068893
0.80400181 10.382 5.0214057 3416619
0.83400178 10.387 4.9574056 1775902
0.79400182 10.387 4.9454055 2500395
0.8230018 10.386 4.8864055 1973539
0.90100181 10.327 4.7914057 9007977
0.82900178 10.384 4.7524056 2170660
0.77900177 10.373 4.7394056 3290681
0.79200178 10.377 4.6784058 3158068
0.88500178 10.289001 4.6674056 7427654
0.85200179 10.386 4.6264057 3222828
0.8090018 10.382 4.6144056 2170917
0.89000177 10.303 4.5384059 8020051
0.80600178 10.379 4.4864058 2761765
0.83300179 10.381 4.4304056 2171678
0.7910018 10.38 4.4164057 8807525
0.88100183 10.288 4.4184055 7821645
0.84100181 10.381 4.2454057 2828328
0.81700182 10.379 4.1734056 2170397
0.8740018 10.362 4.1424055 8289128
0.80700183 10.377 4.1124058 3089694
0.87600178 10.293 3.9894056 8947321
0.87800181 10.294 3.9334056 9932936
0.83200181 10.37 3.7764056 4276267
0.87300181 10.324 3.7614057 9143666
0.89300179 10.32 3.7194057 8558490
0.83500183 10.372 3.6734056 6248519
0.89200181 10.324 3.6644056 6912641
0.86900181 10.367 3.6374056 7960178
0.84700179 10.382 3.6214056 5855567
0.81500179 10.395 3.6034057 7698019
0.89500183 10.305 3.5634058 8750209
0.78500181 10.39 3.4804056 5593935
0.89100182 10.353 3.4284058 8815751
0.87200183 10.371 3.4124057 6315877
0.85700178 10.392 3.3964057 2171948
0.78200179 10.388 3.3664057 921878
0.88700181 10.278 3.4044056 9933714
0.89200181 10.331 3.3834057 8486519
0.86600178 10.372 3.3534057 6381672
0.83800179 10.388 3.3344057 2435113
0.88700181 10.277 3.3504057 9473163
0.89100182 10.33 3.3274057 8551807
0.88200182 10.352 3.3144057 8420734
0.86300182 10.37 3.2974057 5525598
0.84700179 10.391 3.2804058 4802887
0.89100182 10.281 3.2974057 10458518
0.90100181 10.309 3.2894056 9999757
0.89600182 10.334 3.2754056 8617343
0.88400179 10.354 3.2604058 7038566
0.86800182 10.374 3.2444057 5788770
0.87700182 10.252 3.2554057 9933195
0.89100182 10.334 3.2234056 8683136
0.86900181 10.377 3.1934056 4539719
0.83200181 10.391 3.1704056 6317407
0.88600183 10.279 3.2004056 9341577
0.86600178 10.374 3.1454058 5197396
0.83900177 10.391 3.1254058 1580062
0.88600183 10.272 3.1544056 9078657
0.89900178 10.301 3.1464057 9276554
0.9020018 10.327 3.1344056 8354933
0.88900179 10.348 3.1184056 8354680
0.87700182 10.37 3.1024058 5658198
0.84700179 10.387 3.0804057 3225392
0.87100178 10.265 3.1044056 9275522
0.88900179 10.295 3.0974057 8880764
0.89200181 10.32 3.0854056 10130574
0.88700181 10.344 3.0724056 7499112
0.87200183 10.365 3.0544057 6052956
0.84700179 10.384 3.0344057 2830378
0.88000178 10.268 3.0594056 9933452
0.89000177 10.296 3.0504057 9933452
0.88600183 10.344 3.0234056 7104356
0.87500179 10.367 3.0074058 5920599
0.84300178 10.384 2.9844058 2895143
0.89600182 10.278 3.0154057 9472385
0.89600182 10.302 3.0024056 8814455
0.89400178 10.327 2.9894056 8617845
0.88700181 10.351 2.9744058 7696749
0.86900181 10.371 2.9554057 5394513
0.83600181 10.389 2.9324057 2960685
0.88000178 10.263 2.9674056 9472385
0.88900179 10.29 2.9584057 9932936
0.89500183 10.316 2.9474056 8551282
0.89400178 10.341 2.9334056 8749429
0.87100178 10.36 2.9134057 5526868
0.84800178 10.381 2.8924057 2894892
0.86900181 10.243 2.9304056 9801350
0.89200181 10.274 2.9254057 9933450
0.89600182 10.324 2.9004056 9669503
0.88200182 10.347 2.8824058 6710878
0.87000179 10.368 2.8664057 5263436
0.84400183 10.389 2.8434057 6642001
0.88200182 10.27 2.8794057 8223346
0.89200181 10.321 2.8564057 8682610
0.87000179 10.367 2.8224056 4999235
0.88200182 10.26 2.8434057 9407619
0.87800181 10.285 2.8284056 9144447
0.89300179 10.338 2.8074057 7303267
0.85400182 10.381 2.7674057 4602678
0.89600182 10.269 2.8054056 10329491
0.89500183 10.294 2.7914057 10526100
0.89900178 10.319 2.7804058 8485487
0.89200181 10.343 2.7644057 7630179
0.86300182 10.364 2.7404056 5920081
0.89400178 10.264 2.7714057 8157295
0.8970018 10.314 2.7454057 8420464
0.89100182 10.339 2.7294056 7300956
0.87300181 10.36 2.7094057 5723984
0.84500182 10.234 2.7294056 8684400
0.88000178 10.264 2.7284057 9341569
0.87100178 10.364 2.6704056 5592143
0.8600018 10.238 2.6994057 8419948
0.8830018 10.267 2.6944056 8551534
0.87100178 10.366 2.6344056 5262921
0.83000177 10.387 2.6044056 6774105
0.86700177 10.24 2.6674056 9011059
0.88900179 10.269 2.6624057 9669502
0.8650018 10.367 2.5974057 4999744
0.82700181 10.388 2.5674057 6444883
0.86100179 10.238 2.6354058 9667962
0.8830018 10.266 2.6304057 8879986
0.89800179 10.293 2.6214056 8420718
0.84800178 10.389 2.5454056 3023904
0.89500183 10.286 2.5934057 8223082
0.87300181 10.36 2.5424056 6052944
0.85500181 10.239 2.5724056 9142645
0.88500178 10.269 2.5694056 8353899
0.89200181 10.295 2.5584056 8552304
0.89800179 10.321 2.5464056 8749427
0.89000177 10.345 2.5284057 6907740
0.8740018 10.369 2.5084057 5197894
0.83100182 10.391 2.4754057 4011053
0.89100182 10.27 2.5454056 9077365
0.87200183 10.371 2.4794056 4934465
0.89900178 10.272 2.5244057 8618097
0.88500178 10.347 2.4744058 6381911
0.87000179 10.372 2.4534056 5000258
0.87100178 10.244 2.5054057 8748913
0.89000177 10.341 2.4394057 6973533
0.84700179 10.224 2.4704056 8879986
0.89100182 10.254 2.4734056 8090983
0.89800179 10.306 2.4474056 7961194
0.90000182 10.332 2.4334056 7368030
0.84900182 10.421 7.6334057 2369059
0.84400183 10.42 7.5494056 1974561
0.78500181 10.41 7.4514055 13623273
0.81800181 10.41 7.1914058 2766911
0.88000178 10.396 7.0184054 9409936
0.86800182 10.391 6.9234056 7632495
0.8740018 10.392 6.8384056 8618883
0.84000182 10.413 6.7344055 2303266
0.86600178 10.4 6.6574059 7959660
0.81100178 10.409 6.6444058 5002078
0.8880018 10.39 6.5064058 9343371
0.79300177 10.411 6.3954058 6316908
0.79800183 10.409 6.3174057 5132631
0.8830018 10.395 6.2584057 8684924
0.78500181 10.406 6.2344055 7567733
0.89400178 10.365 6.1904058 7962482
0.88600183 10.386 6.1024055 6840663
0.84900182 10.415 6.0864058 1249814
0.79800183 10.409 6.0774055 7752279
0.84700179 10.413 6.0114055 1184534
0.79300177 10.401 6.0034056 6975866
0.85600179 10.414001 5.9284058 1184276
0.89800179 10.36 5.8764057 8817025
0.87200183 10.404 5.8584056 4539455
0.83000177 10.411 5.8464055 1316382
0.85800183 10.411 5.7714057 1381654
0.90000182 10.341 5.7264056 9998214
0.8790018 10.389 5.7074056 5460039
0.84500182 10.41 5.6934056 1184534
0.79400182 10.4 5.6844058 12437453
0.89600182 10.31 5.6594057 6901576
0.8600018 10.411 5.6214056 1710618
0.8880018 10.293 5.5914059 3940374
0.86300182 10.408 5.5524058 2302241
0.82000178 10.409 5.5414057 1907229
0.87000179 10.394 5.4834056 4800573
0.8370018 10.411 5.4704056 1643546
0.89300179 10.319 5.4394054 9075057
0.8600018 10.406 5.4054055 2763304
0.89500183 10.334 5.3614058 9735297
0.81200182 10.401 5.3204055 4598575
0.86900181 10.399 5.1964059 4144175
0.88100183 10.381 5.1324058 6973275
0.8140018 10.402 5.1074057 4464665
0.7950018 10.388 5.0354056 10649735
0.84400183 10.403 4.9754057 1644316
0.78900182 10.382 4.9654055 2368552
0.8740018 10.383 4.9184055 6249295
0.89300179 10.35 4.8684058 9210749
0.8790018 10.382 4.8544059 7039065
0.85400182 10.397 4.8414059 2433314
0.86100179 10.392 4.7754059 4144184
0.78500181 10.379 4.6914058 3422012
0.88100183 10.292 4.6844058 7692883
0.89400178 10.345 4.6704059 9343102
0.88000178 10.373 4.6574059 7631201
0.82100183 10.394 4.6314058 2105125
0.78800178 10.378 4.5604057 3355704
0.88700181 10.295 4.5604057 6967105
0.82700181 10.391 4.5074058 2106149
0.88400179 10.295 4.2474055 8489337
0.89800179 10.338 4.2364058 7829355
0.86800182 10.381 4.2094059 10777203
0.81800181 10.383 4.0694056 11628659
0.89300179 10.341 4.0554056 7303784
0.85600179 10.377 4.0284057 8413012
0.86700177 10.289001 4.0104055 9211265
0.89300179 10.337 4.0014057 8026736
0.82900178 10.385 3.9584057 7433809
0.8420018 10.372 3.8644056 3553323
0.8140018 10.386 3.8484056 5130287
0.83000177 10.378 3.8044057 6117697
0.86300182 10.373 3.7664056 5195574
0.89800179 10.329 3.7414057 9408387
0.87700182 10.346 3.7264056 7367283
0.91200179 10.322001 3.6964056 8165035
0.87100178 10.357 3.6654058 7498595
0.82600182 10.39 3.6334057 4474417
0.90100181 10.355 3.6204057 8355202
0.88100183 10.374 3.6044056 5921116
0.86300182 10.392 3.5894058 3159591
0.8140018 10.398 3.5674057 4410164
0.90100181 10.289001 3.5954056 9144965
0.8970018 10.365 3.5594056 6381672
0.84000182 10.395 3.5234056 3948860
0.89600182 10.291 3.5374057 9210506
0.89400178 10.367 3.5014057 5921372
0.87300181 10.385 3.4854057 3553333
0.8420018 10.399 3.4664056 1251597
0.86900181 10.383 3.4294057 5461331
0.83800179 10.397 3.4104056 1909274
0.87500179 10.259 3.4374056 9735563
0.90500182 10.295 3.4324057 9605002
0.90300179 10.32 3.4204056 8750205
0.90300179 10.346 3.4084058 8881537
0.88700181 10.365 3.3924057 6908014
0.87100178 10.387 3.3764057 3421244
0.84100181 10.401 3.3574057 790545
0.90400177 10.297 3.3824058 9472906
0.90800178 10.324 3.3714056 8815229
0.86900181 10.387 3.3254056 3092531
0.87500179 10.26 3.3414056 9408138
0.90700179 10.296 3.3374057 9473163
0.90300179 10.32 3.3244057 9473160
0.89900178 10.343 3.3114057 7827825
0.89200181 10.366 3.2974057 6446436
0.86400181 10.383 3.2774057 4144713
0.84100181 10.402 3.2594056 6317394
0.88200182 10.257 3.2974057 9276036
0.8970018 10.285 3.2894056 10261651
0.90600181 10.314 3.2794056 9012861
0.90600181 10.339 3.2674057 8617343
0.89900178 10.361 3.2544057 6643812
0.83900177 10.395 3.2124057 3224362
0.90000182 10.308 3.2334056 9735558
0.90600181 10.335 3.2224057 8683394
0.89600182 10.357 3.2074056 6841964
0.87800181 10.377 3.1904056 4605512
0.84400183 10.393 3.1684058 6054236
0.89900178 10.284 3.1984057 9275783
0.9020018 10.309 3.1874056 9276552
0.90100181 10.334 3.1744056 8091508
0.89200181 10.356 3.1594057 6250081
0.8740018 10.378 3.1414056 4342087
0.83900177 10.393 3.1184056 1777441
0.88200182 10.26 3.1574056 8814970
0.89600182 10.288 3.1484056 9802126
0.90100181 10.315 3.1374056 8487040
0.90900183 10.341 3.1274056 9144193
0.89000177 10.361 3.1094058 5920857
0.86800182 10.381 3.0904057 3751482
0.83000177 10.398 3.0664058 3686965
0.86400181 10.244 3.1114056 9012604
0.89300179 10.277 3.1064057 9867659
0.90900183 10.304 3.0994058 8880764
0.90300179 10.328 3.0844057 10196108
0.89600182 10.351 3.0694056 6973027
