# .PCD v0.7 - Point Cloud Data file format
VERSION 0.7
FIELDS x y z rgb
SIZE 4 4 4 4
TYPE F F F U
COUNT 1 1 1 1
WIDTH 1332
HEIGHT 1
VIEWPOINT 0 0 0 1 0 0 0
POINTS 1332
DATA ascii
12.236002 15.018 4.8864055 1645084
12.207002 15 4.8324056 1645340
12.578002 15.123 4.6744056 5720635
12.504002 15.097 4.6964059 657925
12.361002 15.134 4.7164059 856340
12.527001 15.117 4.6014056 1053714
12.458002 15.092 4.6234055 923670
12.257002 15.013 4.6854057 1842715
12.335002 15.055 4.6004057 592398
12.524002 15.098 4.4924059 1120542
12.338002 15.087 4.5364056 4211013
12.230001 15.02 4.5784059 1645854
12.342002 15.121 4.4604058 2237224
12.291002 15.015 4.5014057 1645338
12.217002 14.995 4.5234056 2039582
12.482002 15.079 4.3804059 1118740
12.518002 15.115 4.2984056 1512980
12.458002 15.089 4.3204055 1117972
12.334002 15.103 4.3454056 3815742
12.213002 14.983 4.4084058 1906707
12.319002 15.045 4.3024058 2105889
12.272002 15.012 4.3224058 659213
12.342002 15.114 4.1344056 2632754
12.353002 15.116 4.0464058 1514527
12.334002 15.106 3.9044056 2829099
12.355001 15.114 3.8224056 10593449
12.316002 15.078 3.8454056 5067603
12.332002 15.11 3.6694057 2501423
12.337002 15.124 3.5784056 1579806
12.330002 15.123 3.4974058 1842464
12.312002 15.103 3.4354057 3552824
12.279002 15.091 3.3754058 2631468
12.293002 15.064 3.3024056 5263440
12.297002 15.084 3.1374056 2631720
12.295002 15.08 3.0654056 2828848
12.281002 15.074 2.9834056 3618363
12.308002 15.088 2.8874056 2302244
12.308002 15.086 2.7984056 2040612
12.251001 15.063 5.4824057 1447701
12.383001 15.142 5.3644056 463122
12.199002 15.021 5.4234056 1709838
12.381001 15.142 5.2874055 855570
12.361002 15.062 5.3104057 1184787
12.275002 15.049 5.3284059 1118994
12.197001 15.023 5.3474054 1249031
12.477002 15.101 5.2074056 1250067
12.316002 15.06 5.2454057 1052947
12.239002 15.035 5.2644057 1447705
12.324002 15.054 5.1804056 1118740
12.345002 15.082 5.0984058 1645084
12.281002 15.048 5.1184058 1645084
12.425002 15.109 5.0194058 265744
12.344002 15.092 5.0394058 3817025
12.206002 15.037 5.0784059 1184274
12.563002 15.123 4.8994055 8096136
12.201002 15.005 5.0004058 1842200
12.400002 15.116 4.8694057 856335
12.458002 15.106 4.8004055 592653
12.335002 15.048 4.8414059 133130
12.262002 15.025 4.8614058 1054747
12.195002 15.003 4.8804059 1186839
12.412002 15.107 4.7384057 395533
12.214002 15.031 4.8004055 856338
12.364002 15.126 4.6774058 856085
12.296001 15.032 4.7184057 1250579
12.222002 15.015 4.7394056 1578265
12.551002 15.135 4.5684056 6645868
12.486002 15.108 4.5904055 1185303
12.345002 15.134 4.6124058 1185050
12.573002 15.12 4.4984055 8742236
12.280002 15.043 4.5854058 1842717
12.208002 15.024 4.6064057 1382684
12.397002 15.108 4.4634056 1054486
12.300002 15.038 4.5054059 1118994
12.237001 15.016 4.5264058 1447704
12.455002 15.088 4.3834057 1775898
12.207002 14.988 4.4694057 1447696
12.451002 15.101 4.2904058 2499874
12.274002 15.022 4.3564057 1447959
12.307002 15.084 4.2534056 7237230
12.324002 15.117 4.0814056 3224373
12.344002 15.124 3.9834056 5067866
12.326002 15.12 3.7404056 6120038
12.348001 15.113 3.5824056 3487030
12.296001 15.111 3.5164056 3289650
12.303001 15.063 3.5344057 5329233
12.306002 15.096 3.1114056 2500136
12.297002 15.056 3.1324058 5263440
12.309002 15.094 3.0204058 3092022
12.295002 15.057 3.0424056 5526614
12.307002 15.1 2.9384058 3552058
12.280002 15.073 2.8704057 3421238
12.277001 15.052 2.8024056 4409160
12.300002 15.071 2.6974056 2697772
12.312002 15.032 2.7144058 2960944
12.287002 15.063 2.6184056 3816256
12.286002 15.062 2.4494057 3289915
12.545002 15.111 5.3694057 1974299
12.460002 15.098 5.3874059 397071
12.328002 15.12 5.4034057 3487542
12.556002 15.114 5.3034058 6910577
12.474002 15.096 5.3224058 198666
12.312002 15.059 5.3594055 986897
12.239002 15.035 5.3774056 1053970
12.518002 15.107 5.2174058 527375
12.398002 15.12 5.2334056 724495
12.341002 15.082 5.2544055 2436401
12.216002 15.019 5.2924056 989202
12.543002 15.116 5.1404057 4405553
12.467002 15.095 5.1594057 723985
12.584002 15.123 5.0654058 6839625
12.485002 15.12 5.0844059 1906709
12.355001 15.14 5.1014056 1184539
12.474002 15.096 5.0174055 397071
12.239002 15.044 5.0754056 1579028
12.189002 15.007 5.0954056 1579037
12.450002 15.103 4.9494057 790284
12.316002 15.123 4.9684057 3422527
12.253002 15.025 5.0094056 1578773
12.532001 15.113 4.8594055 1646876
12.459002 15.09 4.8804059 921870
12.243002 15.03 4.9394054 525833
12.517002 15.125 4.7844057 1446412
12.444002 15.107 4.8044057 658959
12.330002 15.045 4.8464055 133387
12.260002 15.024 4.8654056 988954
12.203002 14.993 4.8864055 1449497
12.549002 15.117 4.6994057 6247239
12.329001 15.058 4.7614055 3816507
12.259002 15.034 4.7824059 1316887
12.195002 15.012 4.8014059 1316119
12.553001 15.132 4.6154056 7171688
12.341002 15.13 4.6584058 1777187
12.341002 15.067 4.6794057 2368809
12.300002 15.03 4.6994057 1184787
12.243002 15.002 4.7194057 1512471
12.309002 15.101 4.5824056 5197908
12.244001 15.016 4.6234055 856337
12.192001 14.986 4.6434054 2630948
12.537002 15.116 4.4494057 3883064
12.276002 15.023 4.5354056 1250580
12.212002 14.999 4.5564055 1184532
12.573002 15.121 4.3554058 5522741
12.377002 15.108 4.4014058 1513244
12.322001 15.08 4.4234056 3355704
12.297002 15.036 4.4434056 790029
12.234002 15.011 4.4654055 1447191
12.186002 14.98 4.4864058 3816751
12.554002 15.1 4.2854056 2763046
12.416002 15.114 4.3104057 986385
12.278002 15.014 4.3764057 1382165
12.215002 14.991 4.3974056 2104346
12.321002 15.124 4.2344055 3091501
12.311002 15.073 4.2554059 8816519
12.312002 15.123 4.0674057 3290163
12.329001 15.118 3.8184056 11578530
12.300002 15.11 3.7454057 9671312
12.278002 15.108 3.6754057 4604999
12.321002 15.098 3.3294058 2828847
12.322001 15.098 3.2384057 2631720
12.270001 15.068 3.2664056 5329233
12.281002 15.072001 3.1804056 4408131
12.292002 15.08 3.0834057 2960434
12.300002 15.083 2.9114056 2696232
12.290002 15.044 2.9344056 4012605
12.296001 15.074 2.8304057 2960944
12.292002 15.079 2.5574057 2631727
12.293002 15.059 2.4924057 3881795
12.310001 15.021 2.5104058 4737103
12.288002 15.035 2.4104056 3422016
12.604002 15.101 5.4344058 5720636
12.498002 15.099 5.4514055 1775898
12.534001 15.115 5.3714056 6117972
12.453002 15.095 5.3904057 1381393
12.223001 15.037 5.4434056 1119761
12.508001 15.103 5.2984056 527886
12.346002 15.145 5.3114057 1778983
12.275002 15.048 5.3524055 724236
12.204001 15.024 5.3714056 1250320
12.496002 15.103 5.2254057 517
12.338002 15.14 5.2394056 2107181
12.274002 15.042 5.2804055 1119253
12.205002 15.019 5.2984056 1515544
12.333002 15.142 5.1634059 2172721
12.350001 15.059 5.1874056 527632
12.488002 15.112 5.0694056 1314831
12.342002 15.072001 5.1074057 1119768
12.217002 15.019 5.1454058 1119258
12.514002 15.108 4.9794059 1251347
12.410002 15.108 4.9974055 792344
12.319002 15.096 5.0174055 2698544
12.302002 15.043 5.0384059 855565
12.228002 15.025 5.0564055 591879
12.172002 14.994 5.0764055 6580837
12.542002 15.111 4.8924055 2042408
12.258001 15.026 4.9704056 1644571
12.539001 15.128 4.7884059 5393731
12.470002 15.107 4.8084059 987665
12.519002 15.106 4.7154055 1643021
12.438002 15.09 4.7364058 461582
12.294002 15.049 4.7774057 1053715
12.232002 15.026 4.7964058 724752
12.533002 15.124 4.6184058 6514016
12.339002 15.05 4.6824055 2105636
12.287002 15.02 4.7024055 1053201
12.209002 15.007 4.7214055 1577751
12.515002 15.104 4.5454059 1578523
12.304002 15.095 4.5894055 3158325
12.301002 15.041 4.6094055 1645338
12.249002 15.013 4.6294055 66820
12.172002 14.996 4.6504059 3157291
12.220002 14.995 4.5464058 1776669
12.442001 15.086 4.3864055 2762023
12.299002 15.096 4.4114056 3618876
12.191002 14.988 4.4734058 2566174
12.479002 15.092 4.2834058 4078905
12.315001 15.06 4.3294058 3815737
12.289001 15.019 4.3504057 1447959
12.225001 14.996 4.3724055 1644825
12.289001 15.121 4.2214055 4342338
12.314002 15.063 4.2394056 10067099
12.230001 14.996 4.2824059 4935767
12.170002 14.971 4.3044057 5066571
12.319002 15.118 4.0524058 12960191
12.288002 15.08 4.0744057 4868424
12.280002 15.113 3.9774058 8420475
12.296001 15.062 3.9944057 5395279
12.270001 15.108 3.9034057 5722704
12.310001 15.051 3.9184058 7236202
12.267002 15.1 3.8194056 2630182
12.269002 15.098 3.7404056 3091758
12.323002 15.102 3.5484056 3026478
12.260002 15.074 3.5764058 5197647
12.321002 15.105 3.4554057 3487029
12.286002 15.088 3.2994056 2631468
12.285002 15.048 3.3194056 4408129
12.269002 15.055 3.1504056 4868682
12.310001 15.081 3.0394056 2565676
12.276002 15.047 3.0664058 3947580
12.307002 15.079 2.9494057 2828847
12.279002 15.042 2.9754057 4144958
12.302002 15.085 2.8704057 2105378
12.293002 15.071 2.7034056 2763565
12.284001 15.034 2.7264056 2829358
12.274002 15.048 2.6234057 4474184
12.296001 15.075 2.5264056 2434349
12.254002 15.033 2.5614057 4342347
12.295002 15.061 2.4434056 3355708
12.522002 15.118 5.5034056 13486014
12.435001 15.105 5.4394054 1513241
12.286002 15.063 5.4744058 1712419
12.207002 15.049 5.4904056 10464176
12.449002 15.104 5.3544059 526857
12.319002 15.118 5.3694057 3621187
12.319002 15.052 5.3914056 1052690
12.239002 15.037 5.4084058 1185556
12.182002 15.005 5.4274058 4738633
12.531002 15.136 5.2404056 8951192
12.511002 15.102 5.1694055 1184276
12.340002 15.14 5.1824055 2040875
12.342002 15.073 5.2054057 1581090
12.211001 15.026 5.2414055 1053719
12.532001 15.11 5.0614057 1380617
12.293002 15.059 5.1174059 1711645
12.244001 15.026 5.1364055 1053207
12.567001 15.119 4.9644055 8619393
12.492002 15.099 4.9834056 988691
12.209002 15.014 5.0594058 856081
12.531002 15.107 4.8834057 1252634
12.446002 15.091 4.9034057 856077
12.242002 15.024 4.9604058 1052433
12.183002 14.998 4.9794059 1973531
12.535002 15.134 4.7834058 5196094
12.469002 15.109 4.8044057 790030
12.219002 15.009 4.8834057 1318940
12.440001 15.094 4.7144055 658961
12.225001 15.032 4.7754059 1250837
12.175002 15 4.7964058 3487542
12.542002 15.137 4.5944057 7764856
12.476002 15.111 4.6164055 988436
12.320002 15.129 4.6374059 2895154
12.326002 15.07 4.6594057 2500395
12.231002 15.009 4.6994057 1447187
12.527001 15.116 4.5084057 2299672
12.299002 15.056 4.5734057 2105635
12.246002 15.027 4.5944057 461319
12.174002 15.008 4.6154056 2434085
12.203002 14.998 4.5214057 1908251
12.420002 15.093 4.3584056 5066833
12.289001 15.094 4.3834057 2105637
12.245002 15.012 4.4244056 1052944
12.286002 15.124 4.2874055 7236203
12.279002 15.079 4.3074055 5197134
12.232002 15 4.3494058 1710877
12.177002 14.971 4.3714056 4079170
12.388001 15.108 4.0154057 12499641
12.316002 15.107 3.7684057 9209989
12.253002 15.077 3.7954056 5261650
12.298002 15.092 3.5114057 2829099
12.285002 15.054 3.5334058 4539717
12.317001 15.098 3.3334057 2697261
12.306002 15.089 3.1594057 2500134
12.277001 15.063 3.0024056 4868684
12.279002 15.06 2.8314056 5395285
12.271002 15.047 2.7644057 4276804
12.275002 15.035 2.6804056 3750460
12.293002 15.07 2.5714056 2829107
12.268002 15.031 2.6004057 4868691
12.291002 15.071 2.4854057 2565935
12.270001 15.031 2.5144057 4342347
12.271002 15.033 2.4254057 4211273
12.477002 15.091 5.4454055 1250069
12.315001 15.123 5.4544058 4147531
12.308002 15.063 5.4774055 2501679
12.223001 15.05 5.4924059 11057082
12.178001 15.014 5.5114055 9870760
12.508001 15.095 5.3334055 1383195
12.539001 15.108 5.2324057 3620931
12.441002 15.102 5.2484055 1118995
12.566002 15.125 5.1264057 8351328
12.283002 15.037 5.1994057 790289
12.394002 15.129 5.0584059 658449
12.492002 15.107 4.9484057 922129
12.324002 15.131 4.9644055 2633011
12.347002 15.065 4.9864058 1119257
12.221002 15.015 5.0244055 1776152
12.588002 15.102 4.8464055 7699318
12.336001 15.052 4.9054055 3554624
12.269002 15.027 4.9254055 4013121
12.205002 15.005 4.9434056 1054746
12.528002 15.102 4.7564058 788484
12.315001 15.088 4.7954059 1777440
12.288002 15.047 4.8154058 790803
12.239002 15.015 4.8364058 791316
12.425002 15.098 4.6784058 133130
12.254002 15.015 4.7384057 1447702
12.184002 14.993 4.7594056 3289652
12.477002 15.113 4.5754056 1316375
12.299002 15.132 4.5964055 3289912
12.229002 15.008 4.6584058 4803148
12.283002 15.02 4.5594058 1380121
12.342002 15.035 4.4544058 986393
12.197001 14.992 4.4964056 1975849
12.515002 15.12 4.3054056 3618102
12.299002 15.092 4.3544059 3881535
12.192001 14.988 4.4174056 2040614
12.348001 15.118 4.2424059 6250086
12.222002 15.019 4.3084059 3486002
12.341002 15.122 4.1584058 4473920
12.320002 15.123 4.0664058 7236198
12.314002 15.109 3.9854057 8749440
12.284001 15.098 3.7244058 3025965
12.308002 15.054 3.7424057 4736835
12.312002 15.103 3.5444057 3158064
12.308002 15.098 3.4594057 2500134
12.317001 15.096 3.3664057 2434089
12.334002 15.103 3.2814057 3092019
12.287002 15.092 3.1194057 2500134
12.317001 15.085 2.8544056 2236964
12.319002 15.084 2.7714057 1974306
12.279002 15.047 2.6294057 4342597
12.290002 15.058 2.5414057 4210760
12.306002 15.022 2.5594056 4605518
12.279002 15.055 2.4674056 4210760
12.289001 15.036 2.4004056 3356223
12.578002 15.125 5.4814057 6180933
12.497002 15.105 5.4984055 16315373
12.316002 15.114 5.4174056 3489344
12.253002 15.027 5.4584055 659726
12.180002 15.009 5.4734058 3882050
12.348001 15.129 5.3134055 2502963
12.225001 15.019 5.3704057 1579284
12.270001 15.026 5.2564058 987156
12.511002 15.119 5.0964055 1116165
12.401002 15.114 5.1134057 1316640
12.238002 15.025 5.1694055 2698032
12.183002 14.996 5.1884055 4075832
12.317001 15.126 5.0174055 3422525
12.202002 15.019 5.0754056 1185305
12.332002 15.124 4.9164057 2896185
12.338002 15.07 4.9384055 1119258
12.232002 15.01 4.9774055 1711131
12.194002 14.975 4.9964056 2894115
12.548002 15.128 4.7934055 5722439
12.280002 15.028 4.8734055 3949639
12.214002 15.004 4.8924055 3160887
12.471002 15.092 4.7314057 2961461
12.304002 15.054 4.7704058 5527390
12.529002 15.111 4.6214056 1907748
12.403002 15.103 4.6434054 2303536
12.266002 15.006 4.7044058 1052694
12.195002 14.985 4.7234058 2103841
12.530002 15.109 4.5374055 1513241
12.304002 15.087 4.5794058 5789275
12.258001 15.007 4.6214056 1580577
12.338002 15.026 4.5074058 1643805
12.257002 15.004 4.5294056 1447713
12.259002 15.007 4.4434056 1382177
12.337002 15.119 4.2834058 8091512
12.264002 15.003 4.3474054 1513498
12.194002 14.979 4.3694057 2303016
12.292002 15.112 4.2034059 2500139
12.272002 15.074 4.2244058 5329495
12.169002 14.97 4.2884059 6249570
12.301002 15.099 3.9334056 3749173
12.286002 15.059 3.9554057 5066314
12.315001 15.103 3.6664057 3486518
12.308002 15.102 3.5744057 3092271
12.307002 15.078 3.2364056 3421236
12.296001 15.067 3.1694057 4868682
12.281002 15.052 3.0074058 4671304
12.294002 15.054 2.9194057 5393745
12.293002 15.058 2.8314056 5461078
12.293002 15.069 2.7454057 3421495
12.291002 15.028 2.6944056 3618874
12.312002 15.019 2.5464056 4539980
12.297002 15.044 2.4574056 4737872
12.299002 15.023 2.3984056 3422272
12.539001 15.103 5.4434056 2498071
12.364002 15.131 5.4494057 2238509
12.205002 15.038 5.5034056 11712706
12.508001 15.103 5.3514056 790027
12.310001 15.139 5.3574057 3292736
12.346002 15.066 5.3834057 592911
12.280002 15.042 5.3994055 1513752
12.548002 15.12 5.2334056 8292749
12.472002 15.096 5.2514057 855825
12.299002 15.117 5.2614055 3094076
12.256001 15.03 5.3024058 856335
12.186002 15.008 5.3184056 2039063
12.495002 15.098 5.1454058 1052691
12.265002 15.034 5.1974058 1710879
12.431002 15.109 5.0544057 132618
12.279002 15.117 5.0674057 5527641
12.312002 15.055 5.0904055 987407
12.232002 15.034 5.1084056 1250329
12.373002 15.118 4.9654055 4408645
12.305002 15.091 4.9844055 3619904
12.234002 15.019 5.0234056 1381661
12.174002 14.991 5.0424056 3288626
12.334002 15.121 4.8734055 4342084
12.221002 15.013 4.9344058 265233
12.494001 15.116 4.7684054 4999755
12.313002 15.03 4.8284059 1250843
12.229002 15.01 4.8474054 1579040
12.160002 14.986 4.8664055 3421237
12.544002 15.101 4.6724057 3684927
12.326002 15.117 4.6924057 2895669
12.306002 15.077 4.7124057 3882050
12.227002 15.008 4.7524056 1512735
12.179002 14.976 4.7724056 4539715
12.369001 15.109 4.6034055 2237488
12.288002 15.085 4.6234055 4277072
12.302002 15.036 4.6444058 3091250
12.242002 15.007 4.6654058 3949638
12.188002 14.978 4.6844058 3224376
12.556002 15.109 4.4804058 2303780
12.373002 15.109 4.5034056 2960687
12.276002 15.086 4.5264058 4802122
12.238002 15.009 4.5664058 1840674
12.158002 14.984 4.5874057 3355446
12.535002 15.104 4.3934054 1842980
12.303001 15.108 4.4204059 2961715
12.301002 15.067 4.4404058 2697521
12.306002 15.023 4.4604058 1249566
12.228002 14.996 4.4824057 1712165
12.169002 14.968 4.5024056 2172965
12.506001 15.121 4.2914057 4670276
12.297002 15.074 4.3404055 4276549
12.248002 14.999 4.3814058 1382684
12.390002 15.113 4.2224054 3749950
12.247002 15.011 4.2904058 4538177
12.168002 14.984 4.3134055 2828590
12.286002 15.104 4.1454058 3355703
12.291002 15.062 4.1654058 4934225
12.346002 15.111 3.9584057 10854816
12.334002 15.107 3.7784057 9472902
12.280002 15.08 3.7214057 4868425
12.297002 15.039001 3.7404056 11776684
12.296001 15.085 3.6154056 3881023
12.298002 15.047 3.6354058 4999755
12.311002 15.086 3.4404056 2763306
12.283002 15.047 3.4654057 4144959
12.290002 15.075 3.3734057 4210754
12.293002 15.037 3.3944056 3487281
12.298002 15.064 3.1224058 5066061
12.302002 15.025 3.1444056 3749688
12.291002 15.067 3.0364056 4144961
12.294002 15.03 3.0574057 4210750
12.276002 15.038 2.9014056 4078398
12.297002 15.021 2.8324056 4144961
12.284001 15.024 2.7594056 3684410
12.290002 15.055 2.6654058 3421495
12.297002 15.015 2.6884058 3553084
12.289001 15.072001 2.5834057 5000527
12.277001 15.05 2.4554057 3026740
12.302002 15.017 2.4734056 3554113
12.290002 15.001 2.4124057 4672338
12.524002 15.112 5.4814057 9012353
12.326002 15.089 5.5084057 9080716
12.567001 15.106 5.3744059 5328710
12.427002 15.109 5.3854055 1446930
12.323002 15.047 5.4214058 855311
12.246002 15.027 5.4364057 1120019
12.161002 15.009 5.4514055 7368559
12.364002 15.123 5.2884059 2173488
12.334002 15.082 5.3084059 1119769
12.537002 15.097 5.1894054 3420727
12.334002 15.119 5.1984057 3749691
12.353002 15.063 5.2214055 986905
12.301002 15.031 5.2394056 1316122
12.217002 15.014 5.2544055 1908259
12.387002 15.141 5.0854058 4802113
12.209002 15.009 5.1614056 2104614
12.522002 15.099 5.0014057 3684666
12.354002 15.056 5.0374055 329740
12.290002 15.029 5.0554056 1249558
12.533002 15.099 4.9024057 3749691
12.325002 15.109 4.9164057 3158326
12.272002 15.033 4.9564056 1841694
12.219002 15.003 4.9754057 1777188
12.518002 15.111 4.8084059 2631463
12.331002 15.114 4.8244057 3289398
12.334002 15.066 4.8464055 2500144
12.233002 15.004 4.8844056 2631728
12.563002 15.103 4.7054057 5329494
12.314002 15.074 4.7434058 3750209
12.209002 15.012 4.7824059 2236970
12.169002 14.977 4.8024058 5460817
12.498002 15.109 4.6154056 1447456
12.311002 15.106 4.6354055 3027004
12.339002 15.055 4.6564054 1249562
12.291002 15.023 4.6764059 4868686
12.217002 14.996 4.6964059 1776673
12.336001 15.109 4.5324059 2828588
12.307002 15.071 4.5534058 4340800
12.212002 15.005 4.5944057 921108
12.464002 15.1 4.4354057 1580059
12.268002 15.007 4.5004058 988445
12.188002 14.98 4.5214057 2172198
12.431002 15.126 4.3304057 3355445
12.319002 15.099 4.3544059 3092019
12.345002 15.055 4.3734055 2303016
12.313002 15.017 4.3954058 1777443
12.225001 14.99 4.4174056 1777442
12.293002 15.089 4.2764058 4472896
12.344002 15.04 4.2954059 3815224
12.248002 15.012 4.3194056 2696744
12.211001 14.978 4.3404055 2499882
12.326002 15.114 4.1684055 4408131
12.293002 15.077 4.1904058 5395036
12.339002 15.109 4.0784059 8947076
12.301002 15.072001 4.1014056 5461330
12.341002 15.11 3.9834056 11381160
12.298002 15.072001 4.0074058 5131852
12.294002 15.083 3.9234056 4538695
12.310001 15.051 3.8374057 6972516
12.309002 15.075 3.7484057 5328974
12.314002 15.083 3.5714056 3223857
12.302002 15.044 3.5934057 4079166
12.307002 15.034 3.5094056 5131854
12.302002 15.072001 3.3224056 4342339
12.303001 15.035 3.3444057 3750453
12.297002 15.077 3.2354057 3552822
12.312002 15.09 3.1484056 2631720
12.300002 15.05 3.1724057 4802889
12.357002 15.097 3.0644057 3815745
12.289001 15.047 3.1004057 3947580
12.299002 15.069 3.0114057 3815741
12.308002 15.032 3.0324056 4473922
12.290002 15.073 2.9374056 3683384
12.296001 15.034 2.9594057 4408129
12.293002 15.063 2.8684056 3486518
12.303001 15.027 2.8894057 3816253
12.292002 15.042 2.8114057 5790556
12.309002 15.012 2.7564056 4211014
12.293002 15.062 2.6574056 3224116
12.299002 15.025 2.6794057 3618877
12.293002 15.05 2.5934057 4474183
12.310001 15.014 2.6134057 4276553
12.296001 15.051 2.5234056 4408390
12.294002 15.011 2.5494056 3881795
12.291002 15.06 2.4444056 3355705
12.310001 15.006 2.4074056 4935253
12.510002 15.095 5.4264059 3750462
12.300002 15.118 5.4304056 4144446
12.349002 15.052 5.4564056 1775901
12.261002 15.033 5.4704056 854798
12.169002 15.018 5.4834056 4406844
12.244001 15.032 5.3724055 1381402
12.177002 15.009 5.3874059 1973281
12.297002 15.113 5.2404056 3552827
12.263001 15.027 5.2814054 1447196
12.189002 15.004 5.2964058 2039330
12.489002 15.104 5.1294055 4144449
12.181002 15.006 5.1954055 4473161
12.304002 15.115 5.0454059 2434601
12.298002 15.07 5.0664058 5658975
12.252002 15.037 5.0854058 2039845
12.174002 15.013 5.1014056 2367786
12.294002 15.118 4.9414058 2566186
12.336001 15.064 4.9634056 1382429
12.203002 15.007 4.9994059 1711139
12.356002 15.047 4.8744059 921880
12.264002 15.024 4.8924055 5724255
12.182002 15 4.9094057 3619647
12.530002 15.113 4.7294059 5460820
12.292002 15.115 4.7464056 2763568
12.434002 15.103 4.6514058 1908778
12.256001 15.007 4.7114058 1381404
12.176002 14.98 4.7304058 4143422
12.453002 15.123 4.5424056 1381656
12.295002 15.061 4.5854058 2433321
12.275002 15.024 4.6054058 1578526
12.519002 15.102 4.4614058 1843486
12.357002 15.04 4.5044055 788496
12.276002 15.008 4.5264058 1185054
12.184002 14.981 4.5464058 2170915
12.472002 15.1 4.3714056 2171430
12.345002 15.032 4.4164057 460559
12.256001 15.001 4.4384055 1118747
12.180002 14.97 4.4594059 2237989
12.320002 15.113 4.2854056 6841445
12.289001 15.036 4.3274055 3947582
12.270001 14.996 4.3484058 1645084
12.159001 14.968 4.3714056 4736844
12.322001 15.115 4.1884055 3026480
12.286002 15.095 4.0204058 3223344
12.273002 15.056 4.0414057 7040103
12.299002 15.088 3.7734056 3682873
12.295002 15.049 3.7954056 8683389
12.292002 15.078 3.6894057 4933963
12.311002 15.04 3.7094057 11250342
12.293002 15.076 3.6084056 4670795
12.295002 15.078 3.5234056 4408131
12.296001 15.04 3.5454056 4671303
12.282001 15.052 3.3024056 4802888
12.287002 15.049 3.0144057 5065548
12.292002 15.057 2.9394057 3815481
12.300002 15.018 2.9614058 3749697
12.301002 15.072001 2.8594058 3421238
12.287002 15.057 2.7984056 3093300
12.293002 15.019 2.8204057 3618874
12.292002 15.058 2.7294056 2895151
12.282001 15.014 2.7574058 3750463
12.286002 15.037 2.5344057 5132115
12.290002 15.054 2.4644058 3224119
12.298002 15.014 2.4884057 3553857
12.286002 15.044 2.4114056 3816513
12.307002 15.011 2.4314058 4474959
12.558002 15.108 5.4564056 4736837
12.326002 15.13 5.4564056 4013114
12.269002 15.053 5.4944057 4999755
12.332002 15.13 5.3524055 4210752
12.339002 15.081 5.3744059 2237999
12.384002 15.123 5.2584057 4671047
12.294002 15.101 5.2734056 3422271
12.333002 15.044 5.2974057 921110
12.251001 15.021 5.3124056 1381404
12.191002 14.991 5.3294058 4605509
12.464002 15.108 5.1554055 4144449
12.299002 15.102 5.1664057 4012868
12.358002 15.044 5.1914058 329743
12.245002 15.026 5.2044058 1381660
12.358002 15.122 5.0564055 4671816
12.305002 15.089 5.0744057 6119525
12.296001 15.046 5.0954056 395536
12.212002 15.022 5.1104054 1841701
12.164001 14.989 5.1294055 4670022
12.508001 15.104 4.9554057 3948094
12.297002 15.102 4.9664059 3290938
12.356002 15.046 4.9904056 658191
12.274002 15.019 5.0074058 1447966
12.189002 14.994 5.0234056 2236196
12.318002 15.113 4.8684058 3157812
12.350001 15.065 4.8904057 2829109
12.202002 15.005 4.9264059 2567474
12.320002 15.048 4.8014059 658708
12.223001 15.02 4.8194056 1579042
12.332002 15.115 4.6794057 2435119
12.337002 15.032 4.7204056 1511958
12.248002 15.003 4.7394056 2235687
12.319002 15.149 4.5674057 789264
12.319002 15.068 4.6084056 2631732
12.285002 15.031 4.6294055 2498858
12.234002 14.996 4.6484056 2765364
12.313002 15.106 4.4964056 2895151
12.316002 15.066 4.5174055 2631211
12.233002 14.993 4.5584059 2301992
12.211001 14.997 4.4614058 1579809
12.282001 15.003 4.3754058 1185305
12.324002 15.05 4.2454057 8223611
12.322001 15.094 4.0484056 2828586
12.314002 15.055 4.0694056 5790036
12.303001 15.085 3.9784057 4144702
12.302002 15.075 3.8114057 5064016
12.301002 15.082 3.6394057 3749693
12.306002 15.045 3.6604056 7828854
12.315001 15.095 3.5544057 2631720
12.304002 15.076 3.4164057 4013375
12.312002 15.039001 3.4374056 4079166
12.313002 15.083 3.3404057 2697261
12.303001 15.072001 3.2744057 3224119
12.311002 15.035 3.2954056 3816256
12.294002 15.049 3.2194057 5658460
12.294002 15.056 3.1464057 4605512
12.304002 15.071 3.0674057 3289902
12.304002 15.032 3.0904057 4013635
12.299002 15.058 3.0044057 4736583
12.337002 15.028 3.0214057 5131602
12.325002 15.026 2.9564056 4605259
12.302002 15.029 2.8834057 3618874
12.295002 15.039001 2.7444057 5461079
12.321002 15.021 2.6964056 4408393
12.293002 15.045 2.6244056 5197907
12.292002 15.047 2.5644057 4737355
12.315001 15.014 2.5844057 4605518
12.298002 15.056 2.5044057 3750461
12.311002 15.018 2.5284057 3881795
12.293002 15.032 2.4664056 4277325
12.311002 15.135 5.4754057 7697520
12.314002 15.088 5.4984055 5526353
12.352002 15.13 5.3694057 5000010
12.316002 15.092 5.3884058 3027515
12.317001 15.047 5.4094057 1710367
12.230001 15.023 5.4224057 1840669
12.314002 15.125 5.2724056 3816253
12.338002 15.077 5.2944055 2171949
12.314002 15.037 5.3144054 1183767
12.209002 15.016 5.3264055 1908003
12.433002 15.115 5.1694055 4670792
12.335002 15.046 5.2054057 461329
12.230001 15.024 5.2184057 789012
12.169002 14.994 5.2344055 3552822
12.252002 15.037 5.1184058 1579551
12.388001 15.121 4.9734058 5000524
12.300002 15.09 4.9914055 3225146
12.240002 15.017 5.0284057 1250075
12.177002 14.984 5.0464058 4735814
12.323002 15.116 4.8874059 3026226
12.300002 15.078 4.9074059 3487039
12.216002 15.006 4.9444056 1317408
12.313002 15.15 4.7744055 4933700
12.320002 15.068 4.8154058 1644835
12.289001 15.03 4.8354058 1645601
12.212002 14.998 4.8534055 2039332
12.329001 15.066 4.7224054 2105638
12.309002 15.027 4.7424059 1644059
12.217002 14.995 4.7614055 2039075
12.328002 15.15 4.5824056 1512987
12.320002 15.029 4.6444058 4341317
12.228002 14.997 4.6634059 4147017
12.355001 15.122 4.5144057 3750460
12.257002 15.006 4.5764055 2301225
12.169002 14.972 4.5964055 3355445
12.352002 15.052 4.4474058 1118234
12.292002 15.014 4.4684057 1119263
12.374002 15.039001 4.3754058 2105637
12.183002 14.963 4.4204059 5132111
12.310001 15.098 4.2484055 3618365
12.310001 15.059 4.2694058 7236202
12.183002 14.979 4.3144054 2368039
12.302002 15.09 4.1764059 3750464
12.316002 15.051 4.1964059 4078403
12.312002 15.045 3.9444056 10921890
12.300002 15.087 3.8374057 4077375
12.333002 15.105 3.7494056 9342347
12.305002 15.101 3.6784058 4407621
12.298002 15.041 3.6374056 4933962
12.297002 15.076 3.4744058 4933960
12.307002 15.04 3.4944057 4736842
12.296001 15.063 3.3444057 3882046
12.320002 15.028 3.3634057 4737355
12.310001 15.079 3.2664056 3487291
12.301002 15.065 3.2054057 3947842
12.320002 15.031 3.2244058 3750463
12.305002 15.067 3.1384056 3750202
12.318002 15.03 3.1594057 3750463
12.310001 15.038 3.0834057 4408392
12.308002 15.016 2.8504057 4145218
12.292002 15.054 2.7704058 4079425
12.311002 15.019 2.7914057 4013632
12.287002 15.059 2.7144058 3158323
12.295002 15.02 2.7384057 3487291
12.289001 15.035 2.6264057 5395032
12.288002 15.035 2.5744057 5131860
12.291002 15.041 2.5164056 4803150
12.300002 15.019 2.4754057 3290941
12.292002 15.049 2.4044056 3750720
12.335002 15.129 5.3794055 4473924
12.315001 15.108 5.2944055 3750976
12.374002 15.053 5.3214059 395280
12.177002 15.003 5.3454056 1842206
12.338002 15.125 5.1834059 4341826
12.309002 15.088 5.2014055 3881284
12.340002 15.039001 5.2254057 527122
12.317001 15.157 5.0754056 6249044
12.317001 15.074 5.1174059 2105386
12.282001 15.037 5.1354055 1053464
12.204001 15.006 5.1504059 2170407
12.321002 15.108 5.0024056 3487802
12.345002 15.065 5.0244055 987671
12.294002 15.028 5.0424056 1578779
12.197001 14.999 5.0574055 2039075
12.306002 15.027 4.9484057 1578779
12.190001 14.997 4.9634056 1250329
12.309002 15.152 4.7854056 5657423
12.316002 15.111 4.8074055 2763055
12.324002 15.03 4.8484058 1842980
12.219002 14.997 4.8654056 2039333
12.356002 15.043 4.7594056 2566191
12.254002 15.008 4.7774057 2171177
12.309002 15.042 4.5774055 3419441
12.186002 14.964 4.6174059 1579293
12.308002 15.101 4.4474058 3290166
12.315001 15.061 4.4684057 1841697
12.332002 15.024 4.4884057 1446686
12.225001 14.982 4.5104055 1777699
12.303001 15.093 4.3754058 3882048
12.329001 15.056 4.3954058 1053464
12.195002 14.974 4.4384055 2434854
12.326002 15.048 4.3094058 4144446
12.316002 15.047 4.2264056 12434366
12.307002 15.049 4.1414056 8618371
12.303001 15.094 4.0334058 3091758
12.297002 15.086 3.8124056 4077376
12.324002 15.097 3.7354057 4736583
12.296001 15.082 3.6714056 3618618
12.337002 15.032 3.6324058 5725026
12.297002 15.068 3.5424056 3947328
12.321002 15.035 3.5614057 4342340
12.305002 15.083 3.4654057 5263183
12.294002 15.068 3.4054058 3421495
12.312002 15.035 3.4244056 3684667
12.305002 15.031 3.3614056 3750460
12.306002 15.043 3.2844057 5395288
12.304002 15.03 3.1054056 3882049
12.298002 15.061 3.0304058 3881274
12.316002 15.025 3.0524056 4079428
12.302002 15.022 2.9974058 3486526
12.298002 15.068 2.9174056 3091502
12.294002 15.046 2.8784056 5855066
12.290002 15.039001 2.8324056 5921372
12.286002 15.04 2.7814057 5396055
12.315001 15.014 2.7454057 4342600
12.303001 15.026 2.6844056 3618877
12.300002 15.014 2.6394057 3881793
12.315001 15.01 2.4994056 5000276
12.283002 15.037 2.4404056 4803665
12.324002 15.013 2.4564056 4935253
12.296001 15.023 2.4094057 3488065
12.332002 15.144 5.4904056 5394764
12.339002 15.123 5.3974056 3421495
12.339002 15.08 5.4184055 2697261
12.327002 15.039001 5.4384055 1841695
12.222002 15.012 5.4494057 2827560
12.319002 15.114 5.3074055 3092532
12.366002 15.067 5.3324056 921882
12.191002 15.006 5.3584056 1841952
12.373002 15.061 5.2364058 1250077
12.188002 14.998 5.2634058 1710619
12.334002 15.148 5.0944057 5657166
12.318002 15.108 5.1144056 4078915
12.351002 15.063 5.1384058 1579042
12.204001 14.997 5.1684055 1973282
12.326002 15.111 5.0134058 2895408
12.323002 15.032 5.0534058 854798
12.219002 14.998 5.0684056 1446939
12.266002 15.008 4.9814057 1382944
12.314002 15.097 4.8314056 3881284
12.368002 15.056 4.8534055 1776677
12.305002 15.018 4.8724055 2631985
12.191002 15.006 4.7954059 1578783
12.322001 15.105 4.6484056 2829880
12.315001 15.065 4.6694055 2302763
12.340002 15.026 4.6904058 2038561
12.204001 14.986 4.7074056 2302247
12.286002 15.018 4.6154056 1579295
12.204001 14.976 4.6354055 2567216
12.198002 14.967 4.5494056 2433828
12.337002 15.053 4.4244056 921368
12.301002 15.011 4.4454055 1579044
12.200002 14.965 4.4674058 2106916
12.350001 15.02 4.3584056 1315865
12.321002 15.1 4.2304058 2763314
12.214002 14.972 4.2954059 4539208
12.316002 15.094 4.0084057 3025965
12.335002 15.037 3.8304057 5922148
12.314002 15.039001 3.7604058 3948101
12.321002 15.042 3.6224058 3883078
12.312002 15.041 3.5584056 4737098
12.314002 15.051 3.4834056 6381408
12.309002 15.071 3.4064057 4013632
12.322001 15.035 3.4274056 4342597
12.300002 15.06 3.3484056 4737355
12.317001 15.033 3.2534056 3618877
12.320002 15.035 3.1964056 3684670
12.303001 15.056 3.0814056 5724243
12.333002 15.025 3.1004057 5263702
12.311002 15.054 3.0334058 5986651
12.306002 15.055 2.9834056 5789271
12.330002 15.021 3.0034056 5394774
12.307002 15.059 2.9294057 5197134
12.313002 15.024 2.8454056 3618874
12.302002 15.06 2.7774057 3882816
12.308002 15.02 2.8014057 3882046
12.323002 15.024 2.7514057 3947842
12.308002 15.056 2.6874056 5329492
12.322001 15.019 2.7094057 4342600
12.301002 15.049 2.6494057 5395285
12.329001 15.019 2.6694057 4803151
12.309002 15.034 2.6204057 3881797
12.301002 15.031 2.5814056 3947590
12.310001 15.063 2.5264056 3750460
12.306002 15.036 2.4384058 4014153
12.317001 15.018 2.4144056 4540752
12.319002 15.111 5.5194058 5723729
12.269002 15.028 5.4574056 1973279
12.317001 15.107 5.3214059 3882306
12.178001 14.997 5.3704057 3289650
12.332002 15.071 5.2394056 2039593
12.202002 14.999 5.2694058 1776413
12.302002 15.087 5.1454058 3947077
12.370002 15.044 5.1714058 658708
12.249002 15.009 5.1824055 4209990
12.317001 15.098 5.0334058 4014661
12.287002 15.019 5.0724058 1118231
12.186002 14.982 5.0864058 5262157
12.319002 15.086 4.9584055 2633009
12.378002 15.045 4.9834056 658191
12.249002 15.006 4.9964056 1514273
12.321002 15.107 4.8484058 3420984
12.324002 15.069 4.8684058 2302765
12.326002 15.027 4.8904057 5330009
12.216002 14.987 4.9054055 4211011
12.300002 15.014 4.7264056 1315098
12.192001 14.97 4.7444057 5459535
12.303001 15.015 4.6424055 5659230
12.182002 14.967 4.6614056 3488319
12.349002 15.023 4.5564055 1576982
12.189002 14.969 4.5764055 2367521
12.326002 15.105 4.4264059 3224885
12.362001 15.032 4.4674058 986134
12.198002 14.975 4.4894056 1712928
12.298002 15.076 4.3634057 4408392
12.413002 15.052 4.3814058 2106151
12.254002 14.993 4.4044056 1646113
12.340002 15.044 4.3084059 3618102
12.318002 15.098 4.2044058 3223864
12.314002 15.097 4.0624056 1712930
12.322001 15.039001 4.0274057 4410191
12.319002 15.044 3.9564056 4145993
12.323002 15.046 3.8194056 4145224
12.319002 15.047 3.7554057 4605775
12.310001 15.055 3.6814058 7696238
12.318002 15.039001 3.6254058 3817285
12.306002 15.067 3.5464056 4342086
12.314002 15.042 3.5054057 4671305
12.310001 15.035 3.4544058 3816253
12.322001 15.04 3.3974056 3882046
12.315001 15.044 3.3444057 4737355
12.308002 15.057 3.2374058 5790046
12.307002 15.06 3.1864057 5526360
12.321002 15.022 3.2084057 5132116
12.325002 15.029 3.1544056 4342600
12.298002 15.062 2.9864056 3815481
12.310001 15.065 2.9374056 4407618
12.318002 15.024 2.9614058 4276295
12.293002 15.052 2.8994057 5327952
12.317001 15.02 2.9194057 4078915
12.295002 15.05 2.8604057 5855579
12.318002 15.017 2.8814056 4211011
12.301002 15.034 2.7924056 4474183
12.304002 15.063 2.7404056 3553081
12.307002 15.027 2.7274058 3487291
12.309002 15.019 2.6964056 3947842
12.304002 15.035 2.6544056 4342600
12.297002 15.047 2.5814056 5132114
12.319002 15.012 2.6034057 4934483
12.301002 15.053 2.4844058 4079428
12.305002 15.027 2.4754057 3422528
12.305002 15.063 2.4394057 3289912
12.307002 15.06 2.4244056 3684670
12.325002 15.112 5.4244056 4078910
12.350001 15.07 5.4484057 1315349
12.323002 15.031 5.4664059 1512729
12.189002 15 5.4714055 3353901
12.310001 15.087 5.3504057 2632757
12.340002 15.046 5.3744059 1579040
12.318002 15.099 5.2364058 4276296
12.361002 15.057 5.2614055 855832
12.285002 15.019 5.2744055 1381404
12.200002 14.982 5.2874055 5855574
12.314002 15.086 5.1604056 3947077
12.388001 15.046 5.1874056 329743
12.247002 15.006 5.1964059 4473162
12.331002 15.108 5.0494056 3224631
12.317001 15.069 5.0684056 5658974
12.321002 15.03 5.0894055 2303017
12.182002 14.988 5.1004057 4735816
12.318002 15.102 4.9724054 3422267
12.321002 15.024 5.0134058 1512987
12.179002 14.98 5.0254059 5459535
12.316002 15.096 4.8844056 4210249
12.287002 15.016 4.9234056 3817285
12.198002 14.972 4.9394054 5000009
12.330002 15.136 4.7794056 4868422
12.316002 15.097 4.7984056 3223353
12.333002 15.058 4.8204055 723989
12.280002 15.015 4.8384056 1250077
12.321002 15.101 4.7124057 3290428
12.187002 14.972 4.7694058 4934216
12.334002 15.11 4.6234055 2237488
12.381001 15.037 4.6654058 1051924
12.208002 14.979 4.6814055 3224890
12.203002 14.989 4.5984058 2368810
12.353002 15.049 4.5044055 591115
12.272002 14.998 4.5254059 1645091
12.319002 15.104 4.3994055 2895668
12.407001 15.042 4.4384055 789013
12.175002 14.962 4.4624057 1382935
12.319002 15.101 4.2584057 3289651
12.173002 14.954 4.3244057 11506043
12.331002 15.045 4.2224054 4672332
12.327002 15.052 3.9514058 4343114
12.314002 15.061 3.8774056 6250083
12.311002 15.082 3.8014057 3158583
12.319002 15.044 3.8224056 4211273
12.310001 15.073 3.7434056 4080198
12.316002 15.091 3.6804056 3684410
12.312002 15.04 3.6534057 4343114
12.327002 15.048 3.5954056 4342342
12.315001 15.048 3.5444057 5592408
12.309002 15.067 3.4834056 5130826
12.323002 15.031 3.5044057 5395028
12.306002 15.061 3.4384058 5526871
12.333002 15.031 3.4574056 6447973
12.322001 15.069 3.3874056 5658457
12.322001 15.031 3.3584056 4408390
12.309002 15.042 3.3004057 5000530
12.321002 15.036 3.2544057 3618877
12.306002 15.021 3.1694057 3816256
12.296001 15.057 3.1054056 4605508
12.316002 15.023 3.1264057 4539979
12.306002 15.059 3.0654056 5329485
12.302002 15.037 3.0014057 5131351
12.297002 15.023 2.9404056 3618112
12.298002 15.033 2.8684056 4671562
12.302002 15.051 2.7944057 5461848
12.324002 15.017 2.8154056 4868941
12.323002 15.016 2.7834058 4605769
12.299002 15.056 2.6434057 4671562
12.307002 15.01 2.6704056 4474186
12.297002 15.02 2.6534057 3421498
12.310001 15.015 2.6304057 4276553
12.310001 15.1 5.4404058 3683896
12.384002 15.059 5.4694057 4078655
12.280002 15.021 5.4784055 1248785
12.312002 15.087 5.3644056 2566964
12.364002 15.049 5.3894057 1315868
12.318002 15.111 5.2504058 3290168
12.317001 15.071 5.2714057 1382433
12.156002 14.99 5.2964058 6052954
12.312002 15.105 5.1734056 4013122
12.322001 15.066 5.1944056 1381663
12.316002 15.027 5.2144055 987157
12.163002 14.981 5.2214055 6315100
12.304002 15.098 5.0834055 5592412
12.197001 15.013 5.1164055 2762544
12.311002 15.099 4.9984055 3619904
12.321002 15.062 5.0184054 592913
12.305002 15.021 5.0384059 1579038
12.311002 15.103 4.9104056 3553085
12.173002 14.974 4.9634056 5789268
12.180002 14.979 4.8754058 4868680
12.218001 14.996 4.7934055 2434089
12.343001 15.051 4.7024055 986386
12.204001 14.992 4.7184057 1643804
12.168002 14.966 4.6544056 3751492
12.270001 14.988 4.5834055 2367527
12.169002 14.958 4.5164056 9267297
12.312002 15.045 4.4194055 6835777
12.285002 15.001 4.4394054 12229738
12.376001 15.029 4.3664055 10256969
12.166002 14.947001 4.3194056 11768699
12.316002 15.054 4.1484056 5920860
12.307002 15.064 4.0744057 5855066
12.300002 15.083 4.0004058 2435375
12.311002 15.047 4.0204058 5329237
12.302002 15.077 3.9414058 3421755
12.333002 15.101 3.8784056 2566703
12.327002 15.093 3.8274057 2961204
12.319002 15.09 3.7744057 2698289
12.312002 15.03 3.7064056 4804180
12.310001 15.066 3.6404057 5328724
12.318002 15.028 3.6614056 5264731
12.308002 15.067 3.5914056 4606286
12.317001 15.029 3.6134057 4672080
12.310001 15.028 3.5634058 4342340
12.296001 15.061 3.3114057 4145221
12.315001 15.024 3.3334057 4474183
12.319002 15.023 3.2964056 5000530
12.296001 15.035 3.2494056 5132116
12.308002 15.044 3.2084057 5329495
12.312002 15.027 3.1844056 3553084
12.300002 15.037 3.0784056 4934736
12.314002 15.013 3.0304058 5394774
12.295002 15.05 2.9764056 5460306
12.309002 15.022 2.9594057 4012868
12.301002 15.057 2.9154058 5196878
12.298002 15.025 2.9094057 3553082
12.311002 15.02 2.8984056 3816254
12.304002 15.059 2.8594058 5328978
12.310001 15.016 2.8474057 4211011
12.319002 15.113 5.4524055 3815736
12.318002 15.033 5.4934058 2828587
12.172002 14.993 5.4954057 6578011
12.319002 15.108 5.3744059 3619134
12.313002 15.029 5.4144058 1775902
12.204001 14.985 5.4234056 6314588
12.346002 15.065 5.3064055 921882
12.303001 15.022 5.3234057 1052438
12.315001 15.103 5.1964059 4342088
12.332002 15.065 5.2184057 986905
12.320002 15.025 5.2374058 1053207
12.318002 15.147 5.0874057 5920594
12.327002 15.108 5.1094055 3815743
12.320002 15.068 5.1284056 1447456
12.189002 14.978 5.1584058 5722963
12.321002 15.076 5.0384059 1909029
12.313002 15.09 4.9514055 2764595
12.335002 15.054 4.9734058 855570
12.312002 15.09 4.8764057 4670800
12.334002 15.054 4.8984056 921624
12.309002 15.071 4.8114057 2368558
12.458002 15.061 4.6934056 10462372
12.308002 15.126 4.5734057 3155752
12.331002 15.054 4.6144056 9666162
12.210002 14.987 4.6324058 6838880
12.351002 15.026 4.5634055 9993547
12.189002 14.958 4.5094056 10978155
12.331002 15.103 4.3224058 6708057
12.310001 15.069 4.2704058 5723739
12.318002 15.053 4.2164059 5197394
12.303001 15.081 4.1374059 3027507
12.329001 15.097 4.0254059 2830130
12.328002 15.098 3.9714057 2764339
12.326002 15.039001 3.5744057 4671305
12.314002 15.073 3.5124056 4341825
12.319002 15.031 3.5354056 4539719
12.309002 15.022 3.5004058 5658200
12.304002 15.043 3.4534056 5526871
12.310001 15.028 3.3904057 4342597
12.305002 15.04 3.2864056 5066323
12.306002 15.055 3.2164056 5790046
12.323002 15.018 3.2384057 5000530
12.320002 15.022 3.1484056 5066323
12.324002 15.03 3.1084056 4079428
12.323002 15.021 3.0714056 5066323
12.322001 15.023 3.0594056 4737358
12.326002 15.065 5.5054059 5723732
12.327002 15.107 5.3964057 3553598
12.334002 15.069 5.4184055 1841952
12.318002 15.072001 5.3264055 987675
12.371002 15.038 5.3524055 789524
12.186002 14.981 5.3534055 5789780
12.313002 15.079 5.2344055 2829109
12.325002 15.096 5.1484056 4473420
12.324002 15.095 5.0734057 5593437
12.323002 15.056 5.0934057 790037
12.196002 14.997 5.1034055 2368040
12.318002 15.083 4.9334059 3356732
12.303001 15.071 4.8644056 5067351
12.307002 15.092 4.7884059 5657688
12.315001 15.055 4.8084059 7762029
12.183002 14.984 4.8234057 3615788
12.335002 15.105 4.7174058 4408388
12.396002 15.04 4.7604055 9278092
12.181002 14.958 4.7004056 11189171
12.337002 15.106 4.5824056 7039081
12.312002 15.06 4.6024055 4863289
12.188002 14.985 4.6204057 2298391
12.313002 15.062 4.5384059 5850441
12.320002 15.076 4.4654055 5655886
12.341002 15.138 4.3114057 3616046
12.183002 14.963 4.3774056 9402466
12.345002 15.107 4.2224054 3158066
12.380002 15.123 4.1664057 3881534
12.349002 15.034 4.1584058 2962226
12.316002 15.082 4.0804057 4013889
12.307002 15.073 4.0374055 4539719
12.305002 15.074 3.9894056 4013634
12.318002 15.082 3.9394057 3816513
12.323002 15.092 3.8374057 2566703
12.325002 15.089 3.7974057 3290169
12.322001 15.084 3.7544057 3553341
12.307002 15.071 3.7174056 4211010
12.309002 15.068 3.6814058 4999239
12.308002 15.046 3.6204057 6053220
12.316002 15.032 3.5954056 4539720
12.324002 15.032 3.5314057 5131856
12.312002 15.06 3.4244056 6316387
12.326002 15.021 3.4464056 6119008
12.318002 15.017 3.4164057 6053215
12.324002 15.023 3.3584056 5592664
12.313002 15.022 3.3214056 4803150
12.327002 15.024 3.3064058 5263702
12.320002 15.018 3.2844057 5197909
12.325002 15.025 3.2704058 5000530
12.326002 15.155 5.4884057 6118487
12.335002 15.125 5.4164057 3354930
12.411002 15.055 5.4664059 2565416
12.180002 14.99 5.4574056 5985621
12.326002 15.1 5.3484058 3750979
12.361002 15.066 5.3724055 1382433
12.319002 15.099 5.2714057 3487808
12.357002 15.066 5.2954059 1250847
12.493002 15.074 5.2414055 4276042
12.184002 14.98 5.2324057 6118233
12.324002 15.129 5.1104054 4539461
12.316002 15.088 5.1304059 3618112
12.281002 15.041 5.1474056 658707
12.328002 15.081 5.0634055 2962747
12.196002 14.975 5.0934057 10463668
12.330002 15.101 4.9864058 4210503
12.334002 15.064 5.0064058 8491947
12.321002 15.066 4.9344058 5921122
12.203002 14.969 4.8934054 5538468
12.341002 15.113 4.7794056 6973549
12.176002 14.987 4.8124056 3353128
12.324002 15.069 4.7354054 4800062
12.179002 14.985 4.7514057 5457992
12.318002 15.08 4.6624055 5920086
12.323002 15.065 4.6074057 5982027
12.183002 14.978 4.6264057 4140595
12.316002 15.095 4.5294056 2960683
12.375002 15.13 4.4704056 4078907
12.342002 15.111 4.4204059 5327693
12.347002 15.115 4.3664055 6445143
12.344002 15.106 4.0384059 2830128
12.328002 15.094 3.9994056 3026997
12.343001 15.103 3.7394056 2764597
12.314002 15.072001 3.6554058 4736071
12.318002 15.028 3.6784058 5396317
12.336001 15.028 3.6534057 4606544
12.308002 15.06 3.6024058 6185318
12.343001 15.034 3.6214056 4869973
12.321002 15.032 3.5864058 5000270
12.340002 15.035 3.5664058 6052958
12.310001 15.072001 3.5064056 4078653
12.332002 15.03 3.5154057 6447716
12.323002 15.025 3.4824057 6974060
12.315001 15.102 5.4684057 6776164
12.326002 15.065 5.4904056 4276031
12.259002 15.015 5.5014057 4867395
12.320002 15.086 5.4024057 2500912
12.202002 14.987 5.4284058 5854037
12.385002 15.066 5.3544059 1185054
12.320002 15.084 5.2594056 2896705
12.210002 14.984 5.2864056 5930650
12.329001 15.105 5.1824055 4142146
12.292002 15.019 5.2184057 7374763
12.189002 14.999 5.1384058 4080465
12.313002 15.081 5.0554056 2896695
12.319002 15.07 4.9944057 4869716
12.318002 15.072001 4.9304056 4867920
12.317001 15.086 4.8564057 4408648
12.334002 15.05 4.8784056 9282496
12.192001 14.966 4.8904057 6458541
12.321002 15.108 4.7834058 6513768
12.307002 15.065 4.8024058 3221542
12.207002 14.982 4.7614055 10920855
12.180002 14.974 4.6544056 5127747
12.269002 15.011 4.5534058 10121584
12.465002 15.049 4.5754056 12359276
12.323002 15.094 4.4764056 3815735
12.297002 14.994 4.4744058 10915150
12.311002 15.084 4.3874059 4077625
12.334002 15.141 4.3164058 3813425
12.301002 14.997 4.3794055 12822900
12.482002 15.054 4.3414059 10649189
12.340002 15.106 4.1984057 3223859
12.311002 15.086 4.1574059 3027507
12.319002 15.085 4.1194057 3882302
12.304002 15.072001 4.0864058 4342597
12.350001 15.03 4.0454059 2502965
12.348001 15.108 3.9444056 3092790
12.310001 15.074 3.9204056 4276806
12.304002 15.066 3.8624058 4671565
12.326002 15.025 3.8594058 5395804
12.323002 15.023 3.8304057 5395547
12.303001 15.059 3.7034056 5789011
12.369001 15.118 3.6804056 3552566
12.321002 15.09 5.4564056 3620170
12.330002 15.111 5.3804059 4996664
12.323002 15.07 5.3994055 7639220
12.224002 15.008 5.4064054 6323364
12.231002 15.023 5.2624059 4476769
12.308002 15.073 5.1254058 4208449
12.184002 14.996 5.1344056 3619914
12.175002 14.985 5.0084057 4474443
12.318002 15.064 4.9414058 5921379
12.189002 14.98 4.9534059 9018281
12.309002 15.074 4.8824058 5001046
12.485002 15.057 4.9314055 4878232
12.317001 15.071 4.8334055 3155750
12.180002 14.979 4.8464055 6973805
12.261002 15.009 4.7984056 6382944
12.230001 15 4.7474055 6907489
12.448002 15.046 4.7754059 12040631
12.319002 15.097 4.6734056 3290420
12.306002 15.086 4.6304059 3618358
12.341002 15.017 4.6264057 10657943
12.314002 15.093 4.5364056 3157805
12.188002 14.964 4.5204058 10780018
12.463002 15.051 4.5434055 11767648
12.237001 14.975 4.4804058 12493171
12.518002 15.067 4.5014057 9005901
12.345002 15.111 4.3994055 4735299
12.258001 14.981 4.4414058 12098918
12.532001 15.072001 4.4614058 7427643
12.322001 15.094 4.3584056 4273974
12.535002 15.07 4.4194055 4861464
12.293002 15.069 4.2874055 4407879
12.300002 15.069 4.1244059 4671562
12.334002 15.03 4.0644054 4673875
12.299002 15.057 4.0144057 5920602
12.303001 15.072001 3.9764056 4013635
12.302002 15.061 3.9594057 5657943
12.290002 15.052 3.9124057 6052189
12.328002 15.029 3.9314058 5462110
12.297002 15.054 3.8904057 6446947
