# .PCD v0.7 - Point Cloud Data file format
VERSION 0.7
FIELDS x y z rgb
SIZE 4 4 4 4
TYPE F F F U
COUNT 1 1 1 1
WIDTH 969
HEIGHT 1
VIEWPOINT 0 0 0 1 0 0 0
POINTS 969
DATA ascii
3.6940019 1.0350001 2.8774056 4872799
3.7170019 0.96700007 2.8634057 1448467
3.7050018 1.038 2.8394058 13093585
3.7000017 0.98900002 2.7974057 7765360
3.7040019 1.0170001 2.7924056 4342846
3.7020018 0.99500006 2.7444057 3425096
3.7010019 1.018 2.7374058 2308412
3.6900017 1.034 2.7254057 2371897
3.6800017 1.051 2.7134056 2433577
3.6940019 0.97600001 2.6934056 3687753
3.7150018 1.016 2.6954057 2111802
3.6980019 1.0270001 2.6804056 2505018
3.6470017 1.061 2.6344056 5920341
3.6950018 0.96800005 2.5844057 4278600
3.6970017 1.0350001 2.5614057 2306867
3.6390018 1.066 2.5084057 5261638
3.6950018 0.96700007 2.5204058 3949634
3.7090018 0.99600005 2.4454057 3227966
3.6990018 1.0120001 2.4314058 3095604
3.6980019 1.0320001 2.4224057 2503986
3.6830018 1.0450001 2.4054058 2173994
3.7130017 0.99600005 2.3754058 3096634
3.6940019 1.0270001 2.3474057 2438704
3.6550019 1.071 2.2974057 856346
3.7120018 0.99800003 2.2774057 10260877
3.7020018 1.033 2.2524056 3818050
3.6790018 1.02 2.8274057 7497835
3.6780019 1.062 2.8084056 4794157
3.6650019 1.0700001 2.7944057 4725529
3.6610017 1.0830001 2.7854056 6369577
3.6260018 1.1090001 2.7444057 9204332
3.6600018 1.038 2.6514056 2108975
3.6690018 1.069 2.6424057 10392721
3.6640017 1.0810001 2.6314056 10194053
3.6140018 1.1190001 2.5704057 10326670
3.6370018 1.013 2.4884057 2899254
3.6680019 1.0500001 2.4924057 2107433
3.6720018 1.0650001 2.4874058 3156777
3.6680019 1.0780001 2.4754057 9667970
3.6680019 1.0910001 2.4674056 10655635
3.6560018 1.1010001 2.4504056 10392463
3.6410017 1.1110001 2.4324057 10063498
3.6220019 1.1190001 2.4104056 10326672
3.6010017 1.128 2.3864057 9932172
3.6400018 1.0120001 2.3144057 1778474
3.6660018 1.0320001 2.3234057 2436658
3.6730018 1.0470001 2.3194056 2305073
3.6700017 1.061 2.3084056 1844010
3.6700017 1.074 2.2984056 1383460
3.6670017 1.087 2.2874057 987932
3.6620018 1.1010001 2.2734056 724762
3.6490018 1.1110001 2.2544057 329490
3.6330018 1.123 2.2324057 1117972
3.6320019 1.0300001 2.8754058 3360068
3.6500018 1.049 2.8264058 9079182
3.7070017 0.95800006 2.8384056 4802629
3.6190019 1.0550001 2.6334057 2631721
3.6590018 1.054 2.5934057 2434856
3.6760018 0.96000004 2.5704057 4079677
3.6980019 0.99100006 2.5724056 3359554
3.6860018 1.0270001 2.5494056 2570038
3.6780019 0.96100003 2.5004058 4145725
3.7020018 0.99200004 2.5034056 3425345
3.6920018 1.008 2.4894056 3030841
3.6300018 1.061 2.4214056 2762534
3.6900017 0.96900004 2.3224056 10195084
3.7060018 0.99400002 2.3204057 10326670
3.7000017 1.0120001 2.3064058 5919824
3.6880019 1.0270001 2.2904058 3292478
3.6810019 1.044 2.2764056 2765878
3.6430018 1.069 2.2344058 724762
3.6600018 0.94900006 2.2104056 5065544
3.6950018 0.97900003 2.2194057 10195084
3.7070017 1.0020001 2.2154057 10064011
3.5990019 1.0420001 2.8564057 4083544
3.6370018 1.102 2.8564057 3555646
3.6110017 1.133 2.8224056 329219
3.6550019 1.0530001 2.7414057 3156525
3.6500018 1.079 2.7244058 9732475
3.6450019 1.0910001 2.7144058 10062723
3.6210017 1.11 2.6854057 10458510
3.6070018 1.1190001 2.6694057 10918548
3.6320019 1.015 2.5914056 2637113
3.6540017 1.0350001 2.5974057 2175282
3.6580019 1.0500001 2.5914056 2304298
3.6490018 1.061 2.5774057 3617841
3.6460018 1.075 2.5674057 10392460
3.6470017 1.089 2.5604057 9931912
3.6400018 1.1 2.5474057 10326670
3.6290019 1.1110001 2.5324056 10129291
3.6170018 1.122 2.5154057 10260877
3.6390018 1.016 2.4254057 2767413
3.6550019 1.033 2.4274056 2306866
3.6620018 1.0480001 2.4234056 2041895
3.6610017 1.062 2.4134057 2303008
3.6520019 1.074 2.3984056 7235680
3.6510017 1.0880001 2.3884056 10457992
3.6380019 1.113 2.3604057 9668222
3.6240017 1.1240001 2.3414056 5457990
3.6620018 1.0370001 2.2494056 1976108
3.6690018 1.0530001 2.2434056 1910315
3.6630018 1.066 2.2294056 1449253
3.6570017 1.079 2.2144058 856346
3.5910017 1.039 2.8684056 3096382
3.6290019 1.0600001 2.8294058 10329507
3.6970017 0.94200003 2.8554056 10264218
3.6960018 1.008 2.8304057 5785931
3.6930017 0.98700005 2.6994057 3490889
3.6180017 1.0550001 2.6224058 2368806
3.6830018 0.96200001 2.6344056 4342851
3.6960018 0.98800004 2.6314056 3687752
3.6550019 1.051 2.5754056 1975589
3.6230018 1.0580001 2.5504057 2565669
3.6880019 1.01 2.5224056 2899001
3.6300018 1.066 2.4554057 3353643
3.6800017 0.96600002 2.4494057 4081218
3.6900017 0.98900002 2.4454057 3227967
3.6900017 1.0090001 2.4354057 3227448
3.6820018 1.0250001 2.4214056 2569776
3.6770017 1.043 2.4084058 2240044
3.6390018 1.069 2.3684056 3025700
3.6750019 0.95500004 2.3544056 4538940
3.6970017 0.98100007 2.3554056 3161914
3.6940019 1 2.3434057 3030839
3.6840017 1.015 2.3274057 3358528
3.6500018 1.0630001 2.2774057 790553
3.6650019 0.95200002 2.2414057 5459273
3.6970017 0.99800003 2.2374058 7497828
3.6490018 1.023 2.8504057 4148313
3.6510017 1.094 2.8164058 1973021
3.6480019 1.108 2.8074057 4339512
3.6310017 1.016 2.6934056 2176825
3.6550019 1.051 2.6914058 2630699
3.6510017 1.064 2.6804056 9405058
3.6490018 1.077 2.6724057 10588041
3.6450019 1.09 2.6614056 10850961
3.6320019 1.1 2.6454058 10458256
3.6180017 1.11 2.6294057 10655635
3.5970018 1.1190001 2.6084056 10195084
3.6340017 1.016 2.5304058 2833209
3.6520019 1.034 2.5334058 2306611
3.6590018 1.049 2.5284057 2107689
3.6570017 1.0630001 2.5184057 3090983
3.6490018 1.0760001 2.5044057 10392205
3.6490018 1.089 2.4954057 10129291
3.6270018 1.113 2.4634056 9537154
3.6110017 1.1240001 2.4434056 9537154
3.4730017 0.98000002 2.2534056 3030839
3.6470017 1.0220001 2.3614056 2503982
3.6600018 1.038 2.3604057 2305837
3.6560018 1.052 2.3484056 1976356
3.6510017 1.08 2.3254056 9932170
3.6450019 1.094 2.3104057 526870
3.6440017 1.108 2.2994056 592147
3.6210017 1.1190001 2.2734056 3946041
3.6710019 1.0120001 2.8734057 3952731
3.6960018 1.006 2.8194056 1708824
3.6520019 1.0470001 2.7744057 2694179
3.6380019 1.062 2.7594056 8938083
3.6990018 1.0070001 2.7504058 2768706
3.7020018 0.99400002 2.6674056 3622216
3.7030017 1.0140001 2.6584058 2702649
3.6800017 1.0450001 2.6284056 2107948
3.6250019 1.0630001 2.5844057 5985618
3.6770017 0.96300006 2.5784056 4475207
3.7020018 0.99200004 2.5804057 3293761
3.7040019 1.0120001 2.5714056 3030587
3.6970017 1.0300001 2.5584056 2504246
3.6820018 1.043 2.5414057 2042412
3.6300018 1.0650001 2.4964056 4406586
3.6790018 0.95500004 2.4884057 4933954
3.7030017 1.0020001 2.4804056 3096379
3.6980019 1.0190001 2.4664056 2635829
3.6880019 1.0350001 2.4524057 2306610
3.6780019 1.052 2.4354057 1844003
3.5820017 1.062 2.3664057 2368543
3.6740017 0.95400006 2.3814056 4736061
3.6800017 1.051 2.3294058 2502707
3.6560018 1.0650001 2.3054056 1119518
3.6940019 1.0270001 2.2324057 3161149
3.5460019 1.071 2.8504057 2964267
3.5820017 1.098 2.8614056 6910562
3.5940018 1.131 2.8534057 5069889
3.5780017 1.1390001 2.8374057 7898734
3.6610017 1.0120001 2.8164058 3812143
3.6860018 1.034 2.8224056 1974822
3.6730018 1.043 2.8074057 1644318
3.6690018 1.056 2.7984056 5847361
3.6580019 1.066 2.7834058 5514018
3.6510017 1.0780001 2.7724056 7422777
3.6510017 1.092 2.7644057 7029568
3.6430018 1.1040001 2.7524056 10519166
3.6230018 1.112 2.7334056 9008493
3.6120019 1.123 2.7184057 10062463
3.6290019 1.016 2.6314056 2505271
3.6640017 1.051 2.6354058 2040869
3.6640017 1.0650001 2.6264057 8287860
3.6600018 1.0780001 2.6164057 10325640
3.6500018 1.09 2.6014056 10655378
3.6420019 1.103 2.5874057 10458256
3.6250019 1.113 2.5684056 10260877
3.6090019 1.1240001 2.5494056 10063498
3.6530018 1.024 2.4754057 2635829
3.6660018 1.0400001 2.4744058 2240304
3.6690018 1.0550001 2.4664056 2172198
3.6650019 1.0680001 2.4544058 3484971
3.6560018 1.0810001 2.4394057 10128521
3.6510017 1.095 2.4264057 8616052
3.6410017 1.107 2.4094057 9602177
3.6250019 1.12 2.3884056 10063499
3.6580019 1.0320001 2.2874057 2041901
3.6720018 1.0470001 2.2864056 2173487
3.6790018 1.062 2.2814057 2107694
3.6690018 1.0760001 2.2634056 1449253
3.6570017 1.09 2.2434056 790555
3.6490018 1.1040001 2.2264056 592663
3.6790018 0.98100007 2.7834058 3293512
3.6890018 1.005 2.7784057 2833480
3.6520019 1.051 2.7344058 2696748
3.6710019 0.95800006 2.7044058 5263696
3.6940019 1.0070001 2.6944056 2768706
3.6850019 1.023 2.6814058 2307898
3.6780019 1.0400001 2.6674056 2240305
3.6510017 1.0500001 2.6464057 1975334
3.6290019 1.0630001 2.6264057 7696493
3.6890018 0.99600005 2.6024058 3161664
3.6810019 1.0320001 2.5784056 2438453
3.6420019 1.0580001 2.5394056 2434084
3.6810019 1.0320001 2.4724057 2372659
3.6690018 1.0480001 2.4564056 2173740
3.6470017 1.062 2.4334056 2630949
3.6930017 0.98800004 2.3894057 3030588
3.6370018 1.072 2.3034058 527127
3.6910019 0.97500002 2.2784057 10129291
3.5690019 1.011 2.8504057 3755604
3.5820017 1.029 2.8494058 4083805
3.6180017 1.0680001 2.8524058 5003612
3.6320019 1.0860001 2.8524058 330775
3.6520019 1.1060001 2.8554056 4213315
3.5980017 1.133 2.8024056 986637
3.6530018 1.0350001 2.7384057 2305846
3.6520019 1.0630001 2.7214057 10589589
3.6530018 1.077 2.7134056 9995904
3.6460018 1.089 2.7004056 9339516
3.6370018 1.1010001 2.6874056 10128777
3.6250019 1.113 2.6714056 10588814
3.6050017 1.123 2.6514056 10719629
3.6380019 1.021 2.5734057 2504245
3.6510017 1.038 2.5714056 2174768
3.6620018 1.0530001 2.5684056 2040868
3.6550019 1.0810001 2.5464056 10589325
3.6450019 1.0930001 2.5304058 10853014
3.6320019 1.1060001 2.5134056 10392463
3.6240017 1.1190001 2.4984057 10063498
3.5710018 1.128 2.4554057 10129291
3.6390018 1.0140001 2.3984056 2898482
3.6550019 1.0300001 2.3984056 2569779
3.6590018 1.046 2.3904057 1976359
3.6580019 1.0600001 2.3804057 2171937
3.6580019 1.075 2.3704057 6577750
3.6490018 1.089 2.3534057 11181709
3.6440017 1.103 2.3394058 12495521
3.6300018 1.117 2.3184056 4535090
3.5560019 1.1290001 2.2574058 10195343
3.6530018 1.005 2.8794057 4413533
3.6650019 1.031 2.8744056 4412771
3.6210017 1.074 2.8284056 2829355
3.6900017 0.94100004 2.8464057 7894893
3.6840017 1.0190001 2.8054056 2436663
3.6320019 1.059 2.7544057 8348003
3.7000017 0.99500006 2.7324057 3425096
3.7000017 1.0140001 2.7224057 2375231
3.6720018 0.96800005 2.6294057 4145990
3.6910019 0.99300003 2.6274056 3622216
3.6900017 1.023 2.4954057 2635829
3.6780019 1.039 2.4784057 2240304
3.7000017 0.99400002 2.4044056 3096380
3.7040019 1.0140001 2.3944056 3029810
3.6900017 1.0300001 2.3764057 2503986
3.5930018 0.93900001 2.2394056 1646632
3.6950018 0.97200006 2.2814057 10392463
3.7000017 0.99100006 2.2714057 9997705
3.6960018 1.01 2.2574058 4538943
3.6880019 1.028 2.2394056 2897721
3.6330018 1 2.8424056 5068639
3.6770017 1.024 2.8574057 4805985
3.6700017 1.079 2.8204057 7761772
3.6440017 1.087 2.7984056 1442049
3.6240017 1.1110001 2.7714057 7229769
3.6350019 1.0190001 2.6744056 2242106
3.6580019 1.036 2.6794057 2305589
3.6670017 1.052 2.6754057 2499113
3.6590018 1.0650001 2.6614056 9340291
3.6630018 1.08 2.6544056 10523019
3.6540017 1.0930001 2.6404057 9997705
3.6410017 1.105 2.6234057 9931912
3.6250019 1.118 2.6044056 10326670
3.6340017 1.0120001 2.5044057 2767415
3.6590018 1.028 2.5114057 2570039
3.6650019 1.043 2.5044057 1976619
3.6670017 1.0730001 2.4854057 9208448
3.6110017 1.128 2.4084058 9734534
3.6360018 1.0140001 2.3274057 2767414
3.6520019 1.029 2.3274057 2307118
3.6650019 1.09 2.2914057 790553
3.6470017 1.1060001 2.2674057 395284
3.6320019 1.1210001 2.2454057 789264
3.6210017 1.051 2.8744056 3227709
3.6290019 1.0730001 2.8674057 3885633
3.6630018 0.93900001 2.8614056 3820370
3.6830018 1.023 2.8294058 6709603
3.6880019 1.026 2.7294056 2241850
3.6490018 0.95300001 2.6374056 9077886
3.6670017 0.96500003 2.5294056 4015170
3.6530018 1.059 2.4644058 2302499
3.6320019 0.94000006 2.3944056 11049870
3.6740017 0.96600002 2.4034057 3488825
3.6900017 1.006 2.3874056 3162170
3.6590018 1.059 2.3344057 2304034
3.6800017 0.96500003 2.2814057 9076603
3.6870017 0.98500001 2.2724056 7563878
3.6950018 1.005 2.2634056 5393737
3.6840017 1.023 2.2444057 2897721
3.6780019 1.0420001 2.2284057 2897464
3.5540018 1.051 2.8584056 4609612
3.5710018 1.069 2.8584056 3622196
3.5860019 1.087 2.8574057 2569001
3.5970018 1.103 2.8554056 924176
3.6020019 1.118 2.8494058 662021
3.6120019 1.1340001 2.8454056 5859402
3.5600019 1.1390001 2.8114057 2237979
3.6550019 1.0480001 2.7684057 2826534
3.6540017 1.061 2.7584057 9006189
3.6570017 1.0760001 2.7524056 10191738
3.6320019 1.1010001 2.7204056 10391174
3.6500018 1.054 2.5914056 2434856
3.6570017 1.0680001 2.5864058 9866378
3.6540017 1.0830001 2.5744057 10260360
3.6330018 1.1110001 2.5414057 9997705
3.6040018 1.125 2.5134056 10063498
3.6160018 1.01 2.4274056 3030840
3.6470017 1.0400001 2.4264057 2174511
3.6570017 1.0700001 2.4104056 4209717
3.6190019 1.005 2.2544057 3096650
3.6380019 1.02 2.2554057 2833735
3.6460018 1.036 2.2484057 3291971
3.6550019 1.0830001 2.2184057 10654355
3.6740017 1.0300001 2.7304056 2306874
3.6500018 1.064 2.6984057 10194830
3.6620018 0.95900005 2.5284057 4145470
3.6840017 0.98100007 2.5274057 3490885
3.6940019 1.001 2.5194056 3293759
3.6810019 1.038 2.4904056 2240817
3.6600018 0.95800006 2.4054058 4342590
3.6890018 0.98000002 2.4074056 3161662
3.6910019 1 2.3954058 3096380
3.6970017 1.0190001 2.3864057 2635568
3.6620018 0.95300001 2.2724056 2899271
3.6900017 0.99400002 2.2604058 3685187
3.6850019 1.0120001 2.2444057 6050906
3.5930018 1.006 2.8534057 4215902
3.6140018 1.024 2.8544056 4149342
3.6350019 1.041 2.8564057 3885658
3.6600018 1.059 2.8604057 3950418
3.6760018 1.075 2.8604057 2831158
3.6360018 1.112 2.8134058 3881273
3.6380019 1.02 2.7074056 2307898
3.6550019 1.0350001 2.7074056 2371382
3.6650019 1.051 2.7034056 2630699
3.6740017 1.066 2.6994057 9865608
3.6470017 1.0930001 2.6644056 10916242
3.6130018 1.0040001 2.5364056 3227967
3.6650019 1.0350001 2.5464056 2240817
3.4450018 1.006 2.2604058 2964017
3.6440017 1.0140001 2.3754058 2832689
3.6630018 1.029 2.3764057 2503986
3.6700017 1.0600001 2.3584056 2171937
3.6570017 1.077 2.3384056 8024944
3.6520019 1.0930001 2.3234057 11443100
3.6370018 1.11 2.3014057 10194574
3.6880019 0.98900002 2.8804057 4807271
3.6710019 0.97400004 2.7724056 3425095
3.6870017 1.015 2.7574058 2636606
3.7030017 1.015 2.6384056 2571319
3.6850019 1.0320001 2.6194057 2241588
3.6340017 1.066 2.5724056 8288116
3.6620018 0.95300001 2.5374057 7367783
3.6930017 0.97400004 2.5394056 3687749
3.7020018 0.99400002 2.5304058 3359554
3.6890018 1.0120001 2.5134056 3030840
3.6890018 1.0320001 2.5004058 2438452
3.6430018 1.0680001 2.4534056 3879729
3.6510017 0.94600004 2.4024057 9866626
3.6970017 0.96700007 2.4114056 3554618
3.7030017 1.006 2.3884056 3162169
3.6920018 1.026 2.3694057 2503983
3.6830018 1.046 2.3514056 2174759
3.6540017 1.064 2.3244057 1974042
3.6630018 0.96000004 2.2574058 2965064
3.6820018 0.97800004 2.2534056 2833735
3.6550019 1.001 2.8254056 14933718
3.6670017 1.031 2.8134058 1580321
3.6510017 1.074 2.7774057 5382169
3.6380019 1.102 2.7524056 10650238
3.6060019 1.115 2.7254057 9600886
3.6220019 1.0140001 2.6374056 2373941
3.6460018 1.029 2.6424057 2241588
3.6340017 1.105 2.5834057 10392463
3.6290019 1.008 2.4784057 3030841
3.6590018 1.085 2.4414058 9931398
3.6490018 1.1010001 2.4244056 9734532
3.6270018 1.1190001 2.3984056 10260879
3.6280017 1.011 2.3124056 2832951
3.6470017 1.026 2.3124056 3030601
3.6600018 1.041 2.3094056 9076102
3.6690018 0.98600006 2.8834057 4411477
3.6980019 1.01 2.8824058 4347233
3.6870017 0.98700005 2.7674057 3424849
3.6930017 1.0070001 2.7584057 2899013
3.6870017 1.026 2.7444057 2241850
3.6700017 0.96500003 2.6564057 4277574
3.6930017 1.005 2.6424057 3162433
3.6930017 1.024 2.6294057 2439479
3.6840017 1.044 2.6134057 1976619
3.6960018 0.99800003 2.5154057 3293759
3.6530018 0.95100003 2.3884056 6775385
3.6930017 0.97000003 2.3934057 3423805
3.6970017 0.99000001 2.3824058 3030587
3.7010019 1.01 2.3704057 3030326
3.6940019 1.0300001 2.3544056 2372911
3.6430018 1.072 2.3004057 10128784
3.6360018 0.94700003 2.2374058 2239542
3.6960018 0.96400005 2.2544057 2833735
3.7030017 0.98400003 2.2434056 4013380
3.6970017 1.0250001 2.2114058 10259340
3.6070018 1.0500001 2.8634057 3688522
3.6260018 1.066 2.8634057 3556676
3.6470017 1.082 2.8644056 463120
3.6570017 1.097 2.8604057 331029
3.6110017 1.138 2.8094056 2696742
3.6510017 1.023 2.7474058 2176826
3.6650019 1.038 2.7444057 2239795
3.6750019 1.0530001 2.7394056 3156785
3.6630018 1.067 2.7244058 9931144
3.6460018 1.015 2.5874057 2571064
3.6710019 1.029 2.5904057 2438710
3.6710019 1.0450001 2.5804057 2108204
3.6590018 1.0760001 2.5514057 10457997
3.6380019 1.11 2.5174057 10195084
3.6210017 1.003 2.4244056 3096634
3.6680019 1.031 2.4294057 2503986
3.6680019 1.064 2.4054058 2302750
3.6630018 1.0810001 2.3904057 10787730
3.5590017 1.006 2.2204056 1778480
3.6720018 1.023 2.2694056 5328467
3.6680019 1.075 2.2284057 10654614
3.6430018 0.97400004 2.8744056 4475213
3.6900017 0.99900001 2.8804057 3952991
3.7160017 1.021 2.8784056 3885656
3.6840017 0.97700006 2.7754056 3359305
3.6960018 0.99800003 2.7684057 3227729
3.6970017 1.0170001 2.7574058 2505277
3.6830018 1.0350001 2.7394056 2371383
3.7010019 0.97100002 2.6584058 3949125
3.7070017 0.99000001 2.6484056 3490630
3.7040019 1.01 2.6354058 2833980
3.6950018 1.029 2.6184056 2373174
3.6770017 1.0480001 2.5984056 2107434
3.6710019 0.96200001 2.5154057 4146241
3.6920018 0.98200005 2.5124056 3556677
3.7010019 1.021 2.4904056 2635829
3.6590018 1.0630001 2.4434056 2696484
3.6920018 0.97500002 2.3744056 3161916
3.6930017 0.99500006 2.3614056 2965046
3.7000017 1.036 2.3364058 10457232
3.6970017 0.97400004 2.2404056 2832706
3.7030017 0.99400002 2.2284057 6314078
3.6190019 0.98500001 2.8514056 4346465
3.6410017 1.001 2.8514056 4083291
3.6700017 1.016 2.8564057 4806240
3.6660018 1.0600001 2.8264058 3747379
3.6390018 1.105 2.7834058 2229507
3.6310017 1.0070001 2.6854057 2637890
3.6580019 1.021 2.6904056 2373435
3.6650019 1.0370001 2.6834056 2371125
3.6110017 1.118 2.6004057 10392463
3.6350019 1.008 2.5344057 3096380
3.6570017 1.0220001 2.5354056 2635831
3.6740017 1.069 2.5114057 6248276
3.6530018 1.105 2.4754057 9734533
3.6250019 1.001 2.3714056 3162427
3.6510017 1.015 2.3744056 2832689
3.6810019 1.043 2.3694057 2108458
3.6780019 1.061 2.3554056 2303777
3.6780019 1.0780001 2.3424056 9077375
3.6610017 1.0990001 2.3184056 10454923
3.5710018 1.1340001 2.2474058 7300972
3.6840017 0.98800004 2.8854058 4214614
3.6540017 1.0630001 2.8274057 3881016
3.6850019 1 2.7524056 3161928
3.6910019 0.99100006 2.6284056 3622216
3.6910019 1.011 2.6154056 2900029
3.6840017 1.031 2.5994058 2438710
3.6520019 0.94700003 2.5034056 10919572
3.6930017 0.98500001 2.4944057 3491140
3.6910019 1.005 2.4804056 3162427
3.6720018 1.0480001 2.4434056 2042411
3.6460018 1.0700001 2.4174056 4604219
3.6440017 0.94700003 2.3664057 9011831
3.6920018 1.0040001 2.3464057 3030839
3.6430018 0.94800001 2.2184057 2436921
3.6800017 0.96500003 2.2224057 2964805
3.6900017 0.98400003 2.2124057 3028545
3.5330019 1.067 2.8524058 5793618
3.5720017 1.0830001 2.8604057 2964004
3.6100018 1.113 2.8594058 1648404
3.6200018 1.128 2.8544056 7965289
3.5800018 1.143 2.8254056 1384209
3.6270018 1.0140001 2.7764056 2503999
3.6530018 1.028 2.7794056 2044732
3.6590018 1.043 2.7724056 2499885
3.6530018 1.075 2.7494056 10455424
3.6440017 1.0910001 2.7344058 10389634
3.6210017 1.108 2.7114058 9864830
3.6230018 1.015 2.6254058 2505527
3.6630018 1.043 2.6254058 2173998
3.6510017 1.077 2.5964057 10654606
3.6200018 1.006 2.4724057 3030841
3.6330018 0.96900004 2.8684056 4410191
3.6760018 1.0480001 2.8364058 11447731
3.6780019 0.98100007 2.7494056 3424585
3.6330018 1.062 2.6804056 9273729
3.6460018 0.95600003 2.6184056 5986646
3.6830018 0.97400004 2.6204057 3950152
3.6940019 0.99300003 2.6124058 3161665
3.6910019 1.0140001 2.5974057 2702392
3.6760018 1.036 2.5774057 2240818
3.6490018 0.95500004 2.4894056 5000004
3.6700017 0.97400004 2.4854057 3622467
3.6850019 0.99300003 2.4784057 3293759
3.6850019 0.97200006 2.3494058 3292986
3.6970017 0.99100006 2.3404057 4997710
3.6770017 1.0370001 2.3014057 10128012
3.6580019 1.0630001 2.2754056 10653585
3.5960019 1.021 2.8534057 3754838
3.6500018 1.049 2.8594058 3950680
3.6460018 1.112 2.8174057 3486515
3.6540017 1.033 2.7264056 2371897
3.6600018 1.064 2.7084057 10326416
3.6560018 1.0810001 2.6954057 10456454
3.6350019 1.1 2.6734056 10193544
3.6010017 1.1210001 2.6444056 10325385
3.6180017 1.011 2.5714056 2636856
3.5860019 1.001 2.4214056 3096634
3.6250019 1.011 2.4314058 2965046
3.6510017 1.0420001 2.4224057 2240044
3.6560018 1.0580001 2.4124057 1974817
3.6170018 1.122 2.3494058 9866121
3.6170018 1.001 2.2874057 3096650
3.6630018 1.046 2.2764056 10720407
3.6550019 1.087 2.2434056 10456977
3.6420019 1.1090001 2.2214057 9142145
3.6430018 0.95000005 2.8734057 3621441
3.6800017 0.97000003 2.8744056 4673885
3.6670017 0.96400005 2.7424057 4080710
3.6820018 0.98300004 2.7354057 3359303
3.6840017 1.0020001 2.7234056 3030851
3.6900017 1.023 2.7124057 2307642
3.7000017 0.99900001 2.6034057 3161921
3.7000017 1.02 2.5894058 2635831
3.6620018 1.067 2.5454056 6380119
3.6310017 0.94500005 2.4764056 11116693
3.6850019 1.001 2.4584057 3096380
3.6970017 1.02 2.4484057 2635828
3.6470017 0.94800001 2.3414056 7432545
3.6720018 0.96500003 2.3384056 3686203
3.6930017 0.98300004 2.3324056 3226438
3.6900017 1.006 2.3164058 7037801
3.6930017 1.0270001 2.3024056 9929862
3.6650019 1.036 2.8254056 5987938
3.6360018 1.1040001 2.7694056 9069921
3.6390018 1.0120001 2.6814058 2704196
3.6580019 1.0250001 2.6804056 2110007
3.6370018 1.1140001 2.6124058 10129291
3.5990019 1.001 2.5334058 3293761
3.6430018 1.01 2.5454056 3096380
3.6590018 1.024 2.5434058 2635831
3.6660018 1.0760001 2.5104058 10392205
3.6190019 1.1240001 2.4584057 10326670
3.6270018 1 2.4034057 3293758
3.6660018 1.0270001 2.4014056 2569778
3.6890018 1.01 2.8374057 14935519
3.6970017 1.0300001 2.8274057 2106150
3.6620018 0.97000003 2.7304056 3753030
3.6920018 1.0070001 2.7154057 2505534
3.6840017 1.029 2.6994057 2241338
3.6230018 0.95300001 2.5944057 7433576
3.6680019 0.96800005 2.5984056 4146246
3.6830018 0.98700005 2.5904057 3491141
3.6930017 1.0070001 2.5804057 3227967
3.6780019 1.031 2.5594056 2504246
3.6390018 0.95500004 2.4624057 4407868
3.6700017 0.97200006 2.4604056 3556161
3.6530018 1.0650001 2.3924057 2170907
3.6540017 0.96200001 2.3194056 3228236
3.5640018 1.0680001 2.8594058 5135690
3.6110017 1.095 2.8604057 1283
3.6260018 1.1090001 2.8574057 1385492
3.6320019 1.125 2.8494058 6122315
3.5870018 1.1470001 2.8184056 66049
3.6360018 1.031 2.7654057 1781815
3.6550019 1.044 2.6294057 2173741
3.6010017 1.0070001 2.4954057 2964794
3.6530018 1.031 2.4994056 2372659
3.6550019 1.087 2.4614058 10524049
3.6320019 1.113 2.4354057 9602947
3.6060019 1 2.3794057 3227964
3.6610017 1.0420001 2.3714056 2108458
3.6390018 1.11 2.3164058 11179928
3.6450019 0.93700004 2.8644056 3624018
3.6930017 0.99300003 2.8424056 15065821
3.6480019 0.95700002 2.7214057 6250333
3.6950018 0.97000003 2.7254057 3818566
3.7000017 0.99000001 2.7144058 3425096
3.6910019 1.013 2.6974056 2638146
3.6580019 0.95800006 2.5914056 4934215
3.6880019 0.95800006 2.4604056 4407869
3.6970017 0.97800004 2.4494057 3425090
3.6790018 1.052 2.3944056 2304295
3.6650019 0.95400006 2.3144057 3228236
3.6930017 0.97000003 2.3114057 3096649
3.6950018 0.99300003 2.2964056 4342089
3.7000017 1.015 2.2824056 10456720
3.6900017 1.043 2.2604058 10785941
3.6700017 1.046 2.8634057 4148060
3.6460018 1.0120001 2.7454057 2767423
3.6570017 1.028 2.7394056 2241851
3.6570017 1.0450001 2.7284057 2171690
3.6600018 1.08 2.7074056 10127233
3.6180017 1.003 2.6074057 2899004
3.6590018 1.011 2.6174057 2768442
3.6660018 1.0270001 2.6094058 2373174
3.6610017 1.085 2.5694056 10129031
3.6450019 1.108 2.5484056 10129291
3.6140018 0.99600005 2.4924057 3359554
3.6520019 1.005 2.5004058 3162428
3.6610017 1.021 2.4924057 2701622
3.6670017 1.0780001 2.4564056 10786451
3.5170019 1.024 2.3154056 2503986
3.6740017 1.0320001 2.3664057 2438193
3.5950017 0.99800003 2.2494056 2437437
3.6710019 0.98500001 2.8294058 12827837
3.6690018 1.0270001 2.8024056 1911088
3.6500018 0.97000003 2.7044058 3687494
3.6790018 0.98600006 2.7024057 3425096
3.6370018 0.95800006 2.5734057 4474435
3.6730018 0.97200006 2.5734057 3950665
3.6830018 0.99200004 2.5634058 3293761
3.6860018 1.0140001 2.5494056 2964794
3.6790018 1.039 2.5304058 2174768
3.6220019 0.95200002 2.4354057 4867905
3.6860018 0.98100007 2.4324057 3293248
3.6940019 1.003 2.4204056 3227964
3.6930017 1.026 2.4044056 2569776
3.5550017 0.97200006 2.2644057 2102821
3.6940019 0.99800003 2.2814057 4999760
3.6930017 1.023 2.2644057 10259341
3.6820018 1.0530001 2.2414057 9535874
3.6010017 0.99200004 2.8404057 4083291
3.6520019 1.034 2.8314056 14540514
3.6120019 1.0090001 2.7034056 2506561
3.6430018 1.02 2.7074056 2307898
3.6000018 1.005 2.5874057 3031103
3.6340017 1.013 2.5934057 2768698
3.6560018 1.026 2.5914056 2439223
3.6430018 1.1090001 2.5344057 10063498
3.5930018 1 2.4684057 3228220
3.5950017 0.99800003 2.3634057 3162172
3.6700017 1.0550001 2.3504057 1843997
3.6610017 1.082 2.3304057 10655892
3.6560018 1.0880001 2.2234056 10654614
3.6320019 0.93500006 2.8424056 3950409
3.6740017 0.96900004 2.8304057 10525598
3.6760018 1.013 2.8034058 2566965
3.6460018 0.96000004 2.6984057 4540489
3.6770017 0.97400004 2.6964056 3622216
3.6940019 0.99300003 2.6874056 3490889
3.6400018 0.95000005 2.5684056 8683385
3.6750019 0.96300006 2.5684056 4343621
3.6800017 1.033 2.5234056 2438453
3.6790018 0.98100007 2.4204056 3227455
3.6920018 1.001 2.4104056 3162172
3.6210017 0.95100003 2.2864056 1976629
3.6700017 0.95800006 2.2924056 3359822
3.6310017 0.98600006 2.8224056 15197409
3.6540017 1.0170001 2.8104057 1774617
3.6470017 1.036 2.7964056 1646374
3.6500018 1.054 2.7854056 5321017
3.6540017 1.043 2.6814058 2567218
3.6560018 1.082 2.6584058 10259846
3.6610017 1.033 2.4714057 2438452
3.5980017 0.99300003 2.3804057 3162173
3.6560018 0.93900001 2.8344057 6776411
3.6720018 0.95700002 2.8264058 4671044
3.6790018 0.97800004 2.8144057 2697004
3.6830018 1.021 2.7884057 2308162
3.6330018 0.95600003 2.6884058 5987161
3.6900017 0.98500001 2.6814058 3556682
3.6860018 1.01 2.6644056 2702394
3.6790018 1.036 2.6474056 2306868
3.6290019 0.95000005 2.5584056 8946813
3.6790018 0.98200005 2.5474057 3556677
3.6690018 0.95900005 2.4234056 3882295
3.6910019 0.97600001 2.4174056 3227709
3.6340017 0.95200002 2.2784057 2305851
3.5430019 1.0450001 2.8574057 2569520
3.6170018 1.062 2.8674057 3030842
3.6390018 1.074 2.8664057 3556673
3.6680019 1.0370001 2.7884057 2107698
3.6160018 1.006 2.6814058 2571840
3.6450019 1.016 2.6824057 2571583
3.6190019 1.0020001 2.5844057 2964797
3.6510017 1.01 2.5884056 2702650
3.6610017 1.0480001 2.5674057 2107690
3.6510017 1.0090001 2.4954057 3096633
3.6310017 1.062 2.8734057 3162426
3.6570017 1.0780001 2.8684056 2569778
3.6440017 0.95600003 2.8134058 6052696
3.6540017 0.97500002 2.8034058 2697775
3.6730018 0.99300003 2.7954056 3094333
3.6770017 1.008 2.6574056 2768187
3.6520019 1.067 2.6164057 10458772
3.6110017 0.95600003 2.5454056 4539971
3.6270018 0.95600003 2.4104056 3882038
3.6560018 0.97000003 2.4064057 3424062
3.5950017 0.96100003 2.2624056 1514795
3.6720018 0.98000002 2.2624056 2833735
3.5660019 1.0480001 2.8534057 3161919
3.6150019 1.003 2.7844057 2697776
3.6010017 1.003 2.6834056 2636863
3.6530018 1.026 2.6834056 2241593
3.6540017 1.0680001 2.6584058 10787480
3.5950017 1.0040001 2.5924056 2965309
3.6550019 1.0680001 2.5684056 9143168
3.6450019 1.051 2.8754058 3688522
3.6650019 1.0680001 2.8684056 5135455
3.6670017 0.98900002 2.7904058 3226690
3.6730018 1.011 2.7784057 2701892
3.6510017 0.96700007 2.6724057 4081225
3.6720018 0.98300004 2.6654058 3490117
3.6230018 0.95600003 2.5404058 4408641
3.6660018 0.96600002 2.2684057 3228236
3.6180017 1.011 2.6984057 2440767
3.6140018 1.033 2.8794057 3622983
3.6680019 0.98900002 2.6554058 3622216
3.6740017 1.0120001 2.6424057 2702650
3.6410017 0.96200001 2.5374057 4014656
3.6180017 0.95600003 2.4054058 3750453
3.6750019 0.98600006 2.3944056 3030588
3.6140018 0.95800006 2.2734056 1976886
3.6560018 0.96600002 2.2744057 3096650
3.6440017 1.059 2.8624058 4806495
3.6670017 1.071 2.8594058 3226431
3.6190019 0.98200005 2.8174057 15197667
3.6470017 0.99200004 2.8174057 10853023
3.6490018 1.0120001 2.8064058 2037277
3.6580019 1.039 2.8794057 3622992
3.6900017 1.052 2.8744056 4543071
3.6480019 0.96900004 2.7914057 3620673
3.6820018 1.034 2.7574058 1716275
3.6390018 0.95900005 2.6694057 4672074
3.6780019 0.96700007 2.6684058 4212296
3.6850019 0.99300003 2.6544056 3556423
3.6780019 1.052 2.6194057 2172455
3.6110017 0.95200002 2.4164057 1778482
3.6540017 1.085 2.3434057 11113875
3.6900017 0.99900001 2.2634056 4473930
3.6140018 1.087 2.8594058 2057
3.6530018 1.113 2.8514056 2963750
3.6160018 1.034 2.8764057 3228227
3.6340017 0.95800006 2.7974057 4672071
3.6340017 0.96700007 2.6674056 4015945
3.6710019 0.97600001 2.6654058 3621188
3.6380019 0.96100003 2.5504057 3293008
3.6710019 0.97200006 2.5464056 3228242
3.6660018 0.97000003 2.4164057 3096907
3.6420019 0.95500004 2.3014057 2898245
3.6540017 1.0550001 2.8714056 4740958
3.6130018 0.97200006 2.7934058 2762797
3.6550019 0.97900003 2.7914057 3291455
3.6750019 1.0270001 2.7664056 1979962
3.6160018 0.96600002 2.6794057 2174786
3.6800017 1.052 2.6354058 11706526
3.6140018 0.96000004 2.5554056 1910842
3.6790018 1.0500001 2.5114057 10785940
3.6170018 0.95800006 2.4384058 2108476
3.6690018 0.95900005 2.4424057 3425363
3.6310017 0.95900005 2.3324056 2569023
3.6620018 1.054 2.7664056 7100756
3.6380019 0.96700007 2.6894057 2964559
3.6750019 1.0090001 2.6694057 8416895
3.6340017 0.96900004 2.5744057 3358801
3.6840017 1.003 2.5584056 7889780
3.6060019 0.96200001 2.4734056 1910327
3.6590018 0.95900005 2.4774058 3359570
3.6250019 0.95700002 2.3614056 2503230
3.6740017 0.99800003 2.3434057 3161674
3.6460018 1.095 2.2924056 9998221
3.6540017 0.95600003 2.2484057 2504513
3.6720018 0.98100007 2.2364056 2833735
3.6860018 1.0090001 2.2234056 5130831
3.6170018 0.93900001 2.8364058 10328489
3.6710019 0.96900004 2.8224056 2826026
3.6780019 0.99600005 2.8084056 4865608
3.6310017 0.96200001 2.6154056 2897994
3.6720018 0.97000003 2.6124058 3228242
3.6240017 0.95600003 2.3954058 2371644
3.6080017 0.95500004 2.2804058 1976115
3.6250019 0.96400005 2.3304057 2569023
3.6590018 0.97100002 2.3304057 3228236
3.6070018 0.96200001 2.3144057 1779250
3.6760018 0.98000002 2.3114057 3162700
3.6960018 1.039 2.2844057 10259598
3.6360018 0.95900005 2.3004057 2832451
3.6640017 0.97300005 2.2964056 3294286
3.6840017 0.99600005 2.2864056 3357764
3.6940019 1.0250001 2.2734056 10324620
3.6070018 0.96600002 2.2754056 1976886
3.6560018 0.96300006 2.2804058 3030857
3.6350019 0.96000004 2.2584057 2503486
3.5990019 0.97300005 2.2264056 2041650
3.6530018 0.96400005 2.2354057 2767428
3.6790018 0.98000002 2.2304056 2767428
3.6800017 1.0120001 2.8244057 5456964
3.6550019 0.96500003 2.7524056 3293778
3.6070018 0.96900004 2.6424057 1845564
3.6420019 0.95700002 2.5414057 3161422
3.6350019 0.94800001 2.2154057 2370871
3.6370018 0.96100003 2.4664056 2898249
3.6970017 1.0220001 2.4414058 11641249
3.6130018 0.96500003 2.4474056 2305855
3.6400018 0.96400005 2.4334056 3095883
3.6720018 0.97400004 2.4304056 3096910
3.6960018 1.031 2.4054058 11444633
3.6220019 0.96100003 2.4144056 2437437
3.6900017 1.0580001 2.3734057 12099486
3.6180017 0.96300006 2.3714056 2569023
3.6920018 1.015 2.3514056 12033700
3.6900017 1.0580001 2.3314056 10719120
3.6380019 0.96400005 2.3494058 2898501
3.6930017 0.99400002 2.3394058 4800588
3.6980019 1.0300001 2.3224056 9538440
3.6950018 1.021 2.3034058 9996169
3.6360018 0.96300006 2.3034058 2964294
3.6710019 0.97100002 2.3014057 3162700
3.6260018 0.96200001 2.2784057 2371644
3.6010017 0.97400004 2.2184057 2239029
3.5850017 0.99900001 2.8744056 4018250
3.6980019 1.0600001 2.8444057 11312518
3.6350019 0.95800006 2.4824057 2766406
3.6710019 0.97000003 2.4784057 3425876
3.6800017 1.0480001 2.4434056 11378333
3.6820018 0.96400005 2.3674057 3031114
3.6880019 0.95900005 2.2674057 2899528
3.6390018 0.96800005 2.5954056 3359058
3.6890018 1.036 2.5674057 11509406
3.6200018 0.96800005 2.5794058 2568772
3.6480019 0.96600002 2.5664058 3293778
3.6700017 0.98400003 2.5594056 2767691
3.6460018 0.96800005 2.5274057 3556949
3.6780019 0.97700006 2.5244057 3162701
3.6220019 0.96800005 2.5054057 2700613
3.6440017 0.96700007 2.4854057 3491156
3.6760018 0.97800004 2.4824057 3228495
3.6930017 1.0300001 2.4374056 11838628
3.6790018 0.97200006 2.4404056 3031117
3.6950018 1.0400001 2.4104056 11575713
3.6360018 0.96800005 2.3934057 2964294
3.6940019 1.0400001 2.3634057 11311253
3.6180017 0.96500003 2.3684056 2569023
3.6620018 0.96700007 2.3694057 3096650
3.6100018 0.96900004 2.3404057 2305851
3.6960018 1.061 2.3024056 10325649
3.6950018 1.059 2.2754056 9734284
3.6370018 0.96400005 2.2854056 2766915
3.6990018 1.038 2.2544057 10456978
3.6480019 0.96600002 2.2524056 2701892
3.6960018 1.057 2.2134056 10392214
3.6520019 0.96700007 2.2204056 2832449
3.6820018 1.0350001 2.7944057 10324613
3.6590018 0.95900005 2.7254057 3162706
3.6890018 0.97500002 2.7184057 2636090
3.6470017 0.96200001 2.6314056 3227730
3.6150019 0.95000005 2.3214056 1778993
3.6640017 0.95300001 2.3214056 3228236
3.6470017 0.96900004 2.7234056 3096913
3.6800017 0.97700006 2.7214057 2242110
3.6970017 0.99900001 2.7124057 7036760
3.6850019 1.0480001 2.6914058 8814704
3.6300018 0.96900004 2.7094057 2635594
3.6670017 0.97200006 2.7094057 3162964
3.6590018 0.96400005 2.6974056 3426136
3.6920018 1.029 2.6534057 11706271
3.6260018 0.97200006 2.6374056 2767180
3.6500018 0.96900004 2.6194057 3556950
3.6440017 0.97100002 2.5754056 3491157
3.6370018 0.96700007 2.5554056 3358801
3.6960018 0.99300003 2.5454056 9665932
3.6200018 0.97100002 2.5074058 2700613
3.6160018 0.97000003 2.4834056 2305855
3.6020019 0.97400004 2.3964057 2174265
3.6610017 0.96400005 2.3724058 3030857
3.6000018 0.97400004 2.3324056 2174265
3.7020018 1.01 2.3174057 10325906
3.5560019 1.01 2.2794056 1844786
3.6420019 0.96700007 2.2994056 2964808
3.7010019 1.0350001 2.2324057 10128012
3.6160018 0.95700002 2.4794056 2042683
3.6210017 0.96200001 2.3804057 2700609
3.6360018 0.95200002 2.8584056 3688036
3.6950018 1.046 2.8194056 9730940
3.6930017 0.99400002 2.8274057 5720394
3.6900017 1.039 2.7784057 6969431
3.6310017 0.97600001 2.7674057 2899022
3.6590018 0.98900002 2.7624056 2571854
3.6430018 0.98300004 2.7454057 3228754
3.6730018 0.99500006 2.7404056 3947849
3.6350019 0.97800004 2.7274058 2966095
3.6650019 0.99100006 2.7224057 2440005
3.6410017 0.98200005 2.7054057 3294550
3.6670017 0.98700005 2.6834056 2833484
3.6840017 1.0530001 2.6564057 11047828
3.6950018 1.034 2.6204057 10589326
3.6160018 0.97900003 2.6204057 2963786
3.6140018 0.97700006 2.5974057 2831944
3.6330018 0.98300004 2.5674057 3425364
3.6950018 1.054 2.5384057 11113623
3.6970017 1.023 2.5234056 10456206
3.6020019 0.98500001 2.5114057 2700613
3.5970018 0.98400003 2.4794056 2371648
3.6920018 1.029 2.4604056 11772835
3.6410017 0.97500002 2.4484057 3162191
3.6940019 1.0680001 2.4104056 11902882
3.6960018 1.0480001 2.3824058 11706011
3.6190019 0.98200005 2.3424056 2766915
3.6970017 1.0760001 2.2654057 10193552
3.5990019 0.98100007 2.2664056 2108472
3.6260018 0.95400006 2.7394056 1714486
3.6750019 0.95800006 2.6384056 3360343
3.6660018 1.107 2.8464057 8416603
3.5800018 1.011 2.8664057 2242366
3.6320019 1.0020001 2.8694057 2637900
3.6980019 1.0190001 2.8624058 5132860
3.6120019 0.96900004 2.8634057 4018284
3.6600018 0.96400005 2.8654056 3097958
3.6940019 0.98100007 2.8394058 14011348
3.6640017 0.96400005 2.8074057 1844786
3.6380019 0.96900004 2.7854056 2045509
3.6720018 0.97800004 2.7814057 2309708
3.6810019 0.96600002 2.7644057 2702670
3.6960018 1.0350001 2.7374058 10587018
3.6150019 0.98300004 2.7364056 2438466
3.6770017 0.96500003 2.7424057 2638412
3.6940019 1.0350001 2.7144058 10850701
3.6940019 1.016 2.6974056 6839635
3.6960018 1.036 2.5114057 10983832
3.7000017 1.003 2.4914057 10915988
3.6930017 1.064 2.4684057 12034469
3.6540017 0.96700007 2.4724057 3556949
