//X;Y;Z;R;G;B;Number_of_Returns;Return_Number;Time;Intensity
0.33400181;10.13300037;2.21540570;129;123;107;1.000000;1.000000;68270.765625;8435.000000
0.38500181;10.16300011;2.21740556;122;119;100;1.000000;1.000000;68270.765625;9084.000000
0.41200179;10.18999958;2.21140575;121;118;99;1.000000;1.000000;68270.765625;9733.000000
0.44100180;10.22000027;2.20540571;124;121;102;1.000000;1.000000;68270.765625;8435.000000
0.69200182;10.24100018;2.29240561;125;122;103;1.000000;1.000000;68270.765625;3244.000000
0.86800182;10.26200008;2.34940577;122;119;100;1.000000;1.000000;68270.765625;3893.000000
0.88400179;10.28900051;2.33940578;123;120;101;1.000000;1.000000;68270.765625;4542.000000
0.89100182;10.31599998;2.32640576;114;112;98;1.000000;1.000000;68270.765625;4542.000000
0.88900179;10.34200001;2.30940557;91;91;81;1.000000;1.000000;68270.765625;5191.000000
0.81000179;10.40200043;2.24140573;25;23;22;1.000000;1.000000;68270.765625;3893.000000
0.83300179;10.45600033;2.21740556;159;142;129;1.000000;1.000000;68270.765625;5840.000000
1.04300177;10.60000038;2.21140575;156;141;122;1.000000;1.000000;68270.765625;5840.000000
1.20500183;10.71399975;2.20340562;134;122;110;1.000000;1.000000;68270.765625;12329.000000
1.28500175;10.75500011;2.20840573;106;103;84;1.000000;1.000000;68270.765625;11031.000000
1.35000181;10.77200031;2.22340560;147;140;120;1.000000;1.000000;68270.765625;12329.000000
1.38800180;10.84399986;2.19240570;189;177;169;1.000000;1.000000;68270.765625;9733.000000
1.44200182;10.88599968;2.18640566;164;150;144;1.000000;1.000000;68270.765625;5840.000000
1.42100179;10.99400043;2.10740566;153;141;136;1.000000;1.000000;68270.765625;7786.000000
1.48200178;11.03400040;2.10440564;155;147;145;1.000000;1.000000;68270.765625;4542.000000
0.11000180;9.92300034;2.21540570;169;151;141;1.000000;1.000000;68270.812500;6489.000000
0.16000180;9.95400047;2.21740556;172;154;144;1.000000;1.000000;68270.812500;7786.000000
0.20300180;9.98600006;2.21540570;172;154;144;1.000000;1.000000;68270.812500;7138.000000
0.23300180;10.01599979;2.20940566;169;151;141;1.000000;1.000000;68270.812500;7138.000000
0.28900179;10.04500008;2.21540570;174;156;146;1.000000;1.000000;68270.812500;7786.000000
0.36900181;10.10400009;2.21140575;183;165;155;1.000000;1.000000;68270.812500;7786.000000
0.42800179;10.13300037;2.21740556;175;160;144;1.000000;1.000000;68270.812500;11031.000000
0.48900181;10.18999958;2.20740557;122;119;100;1.000000;1.000000;68270.812500;8435.000000
0.53800178;10.21700001;2.21040559;127;124;105;1.000000;1.000000;68270.812500;8435.000000
0.68900180;10.23999977;2.25640559;121;118;99;1.000000;1.000000;68270.812500;3244.000000
0.86900181;10.26000023;2.31640577;125;118;100;1.000000;1.000000;68270.812500;3893.000000
0.87600178;10.28699970;2.30240560;123;120;103;1.000000;1.000000;68270.812500;4542.000000
0.89300179;10.31299973;2.29340577;121;119;105;1.000000;1.000000;68270.812500;4542.000000
0.85800183;10.42500019;2.21040559;155;137;123;1.000000;1.000000;68270.812500;6489.000000
1.08100176;10.56700039;2.21040559;150;134;118;1.000000;1.000000;68270.812500;5840.000000
1.14500177;10.61200047;2.20740557;183;167;163;1.000000;1.000000;68270.812500;6489.000000
1.30400181;10.69700050;2.21640563;144;141;122;1.000000;1.000000;68270.812500;10382.000000
1.48800182;10.97900009;2.10640574;157;150;148;1.000000;1.000000;68270.812500;4542.000000
0.11600180;9.86299992;2.21540570;169;151;141;1.000000;1.000000;68270.867188;7138.000000
0.20900179;9.92500019;2.21540570;173;155;145;1.000000;1.000000;68270.867188;7138.000000
0.33700180;10.01599979;2.21240568;168;150;140;1.000000;1.000000;68270.867188;7786.000000
0.38100180;10.04500008;2.21240568;170;152;140;1.000000;1.000000;68270.867188;7786.000000
0.53500181;10.15799999;2.20640564;153;142;126;1.000000;1.000000;68270.867188;7138.000000
0.63600183;10.21100044;2.21340561;131;124;105;1.000000;1.000000;68270.867188;7786.000000
0.70000178;10.23700047;2.22440577;126;119;101;1.000000;1.000000;68270.867188;4542.000000
0.85600179;10.25699997;2.27340555;129;122;104;1.000000;1.000000;68270.867188;4542.000000
0.88400179;10.28199959;2.26940560;128;123;106;1.000000;1.000000;68270.867188;4542.000000
0.88800180;10.30900002;2.25440574;117;115;100;1.000000;1.000000;68270.867188;4542.000000
0.87800181;10.36499977;2.21540570;89;81;70;1.000000;1.000000;68270.867188;7786.000000
0.91000181;10.39000034;2.21340561;146;131;116;1.000000;1.000000;68270.867188;7786.000000
0.94900179;10.41499996;2.21340561;155;136;119;1.000000;1.000000;68270.867188;7786.000000
0.98800182;10.43799973;2.21440578;153;135;121;1.000000;1.000000;68270.867188;8435.000000
1.02700186;10.46199989;2.21540570;163;145;131;1.000000;1.000000;68270.867188;8435.000000
1.05400181;10.48600006;2.21040559;166;148;134;1.000000;1.000000;68270.867188;8435.000000
1.09000182;10.50899982;2.21040559;147;129;115;1.000000;1.000000;68270.867188;8435.000000
1.12200177;10.53199959;2.20840573;185;166;162;1.000000;1.000000;68270.867188;8435.000000
1.21400177;10.60099983;2.20140576;171;156;151;1.000000;1.000000;68270.867188;7786.000000
1.27800179;10.64500046;2.19840574;149;152;135;1.000000;1.000000;68270.867188;7786.000000
1.45200181;10.77299976;2.18440557;175;162;153;1.000000;1.000000;68270.867188;5840.000000
1.49500179;10.92100048;2.10540557;158;149;144;1.000000;1.000000;68270.867188;4542.000000
1.52200174;10.94200039;2.10240579;164;155;150;1.000000;1.000000;68270.867188;5191.000000
0.23300180;9.87500000;2.21440578;157;139;129;1.000000;1.000000;68270.914063;6489.000000
0.26700181;9.90499973;2.21040559;165;147;137;1.000000;1.000000;68270.914063;7138.000000
0.36700180;9.96500015;2.21440578;170;152;138;1.000000;1.000000;68270.914063;7786.000000
0.41000181;9.99499989;2.21340561;177;159;145;1.000000;1.000000;68270.914063;7786.000000
0.46300179;10.02200031;2.21840572;170;152;138;1.000000;1.000000;68270.914063;10382.000000
0.47900179;10.05200005;2.20640564;160;143;126;1.000000;1.000000;68270.914063;9084.000000
0.52600181;10.07999992;2.20940566;165;147;134;1.000000;1.000000;68270.914063;9084.000000
0.56500179;10.10700035;2.20740557;166;148;139;1.000000;1.000000;68270.914063;9084.000000
0.61100179;10.13500023;2.20940566;164;146;132;1.000000;1.000000;68270.914063;8435.000000
0.65300179;10.16199970;2.20940566;156;138;124;1.000000;1.000000;68270.914063;8435.000000
0.68600178;10.18700027;2.20740557;161;148;131;1.000000;1.000000;68270.914063;9084.000000
0.73200178;10.21500015;2.20840573;143;135;116;1.000000;1.000000;68270.914063;9733.000000
0.79600179;10.23799992;2.22040558;134;127;108;1.000000;1.000000;68270.914063;4542.000000
0.88500178;10.28800011;2.22440577;125;124;103;1.000000;1.000000;68270.914063;5191.000000
0.93200183;10.33899975;2.21140575;144;127;109;1.000000;1.000000;68270.914063;7786.000000
0.97700179;10.36299992;2.21440578;148;129;112;1.000000;1.000000;68270.914063;7786.000000
1.04800177;10.40999985;2.21340561;159;147;133;1.000000;1.000000;68270.914063;7786.000000
1.07500184;10.43400002;2.20940566;168;150;136;1.000000;1.000000;68270.914063;8435.000000
1.11300182;10.45800018;2.20940566;168;150;136;1.000000;1.000000;68270.914063;8435.000000
1.20800185;10.52600002;2.20440578;167;151;146;1.000000;1.000000;68270.914063;8435.000000
1.34000182;10.61299992;2.20040560;87;100;79;1.000000;1.000000;68270.914063;9733.000000
1.46800184;10.72200012;2.18040562;157;148;141;1.000000;1.000000;68270.914063;5840.000000
1.48100185;10.85000038;2.10240579;168;157;151;1.000000;1.000000;68270.914063;8435.000000
1.50900185;10.86999989;2.10040569;156;146;142;1.000000;1.000000;68270.914063;5840.000000
0.17400180;9.76599979;2.21340561;167;149;139;1.000000;1.000000;68270.960938;7786.000000
0.22600180;9.79699993;2.21540570;163;145;135;1.000000;1.000000;68270.960938;7786.000000
0.26700181;9.82800007;2.21340561;145;127;117;1.000000;1.000000;68270.960938;7138.000000
0.30800179;9.85799980;2.21240568;144;126;116;1.000000;1.000000;68270.960938;7138.000000
0.35700181;9.88800049;2.21440578;162;144;134;1.000000;1.000000;68270.960938;7786.000000
0.38900179;9.91699982;2.20940566;158;140;128;1.000000;1.000000;68270.960938;7138.000000
0.44900179;9.94600010;2.21640563;157;139;125;1.000000;1.000000;68270.960938;9084.000000
0.49100181;9.97500038;2.21540570;158;140;126;1.000000;1.000000;68270.960938;9733.000000
0.51500177;10.00300026;2.20740557;143;125;111;1.000000;1.000000;68270.960938;7138.000000
0.56400180;10.03100014;2.21040559;172;154;140;1.000000;1.000000;68270.960938;7138.000000
0.60600179;10.05900002;2.21040559;166;147;133;1.000000;1.000000;68270.960938;7138.000000
0.64200181;10.08500004;2.20940566;165;147;133;1.000000;1.000000;68270.960938;7786.000000
0.68300182;10.11200047;2.20840573;165;147;133;1.000000;1.000000;68270.960938;7786.000000
0.72500181;10.13800049;2.20940566;166;148;134;1.000000;1.000000;68270.960938;7786.000000
0.77900177;10.16300011;2.21540570;169;151;137;1.000000;1.000000;68270.960938;7786.000000
0.83200181;10.18900013;2.22140574;165;147;133;1.000000;1.000000;68270.968750;8435.000000
0.89200181;10.23999977;2.21340561;152;145;126;1.000000;1.000000;68270.968750;7138.000000
1.00900185;10.31299973;2.21540570;144;126;111;1.000000;1.000000;68270.968750;8435.000000
1.07600176;10.35999966;2.21240568;157;139;125;1.000000;1.000000;68270.968750;7786.000000
1.10700178;10.38399982;2.20940566;152;134;120;1.000000;1.000000;68270.968750;8435.000000
1.13700175;10.40699959;2.20740557;189;174;169;1.000000;1.000000;68270.968750;8435.000000
1.17300177;10.43000031;2.20640564;188;169;165;1.000000;1.000000;68270.968750;8435.000000
1.23500180;10.47599983;2.20240569;171;156;151;1.000000;1.000000;68270.968750;8435.000000
1.26500177;10.49699974;2.20040560;170;155;150;1.000000;1.000000;68270.968750;7786.000000
1.28700185;10.52099991;2.19340563;175;160;155;1.000000;1.000000;68270.968750;7786.000000
1.32500184;10.54199982;2.19540572;166;150;145;1.000000;1.000000;68270.968750;8435.000000
1.43100178;10.60400009;2.19740558;140;141;129;1.000000;1.000000;68270.968750;11031.000000
1.49600184;10.67000008;2.18040562;141;131;126;1.000000;1.000000;68270.968750;4542.000000
1.49600184;10.69600010;2.16340566;155;143;135;1.000000;1.000000;68270.968750;6489.000000
1.57700181;10.83600044;2.10340571;163;152;148;1.000000;1.000000;68270.968750;7138.000000
0.19100180;9.70699978;2.21040559;160;141;134;1.000000;1.000000;68271.015625;6489.000000
0.24800180;9.73900032;2.21340561;150;131;124;1.000000;1.000000;68271.015625;6489.000000
0.41800180;9.85799980;2.21140575;154;136;126;1.000000;1.000000;68271.015625;5840.000000
0.49400181;9.91600037;2.20740557;153;135;125;1.000000;1.000000;68271.015625;7786.000000
0.53800178;9.94499969;2.20640564;161;143;132;1.000000;1.000000;68271.015625;7786.000000
0.62600178;9.99899960;2.20940566;167;148;134;1.000000;1.000000;68271.015625;7138.000000
0.70800179;10.05300045;2.20940566;167;148;134;1.000000;1.000000;68271.015625;7786.000000
0.75100178;10.07900047;2.21040559;172;153;139;1.000000;1.000000;68271.015625;7786.000000
0.79700178;10.10599995;2.21240568;162;144;130;1.000000;1.000000;68271.015625;8435.000000
0.84800178;10.12899971;2.21840572;171;154;139;1.000000;1.000000;68271.015625;8435.000000
0.88500178;10.15499973;2.21740556;174;157;141;1.000000;1.000000;68271.015625;8435.000000
0.91700178;10.18000031;2.21440578;172;155;139;1.000000;1.000000;68271.015625;8435.000000
0.95800179;10.20499992;2.21540570;170;153;137;1.000000;1.000000;68271.015625;8435.000000
0.99900180;10.22900009;2.21640563;162;145;129;1.000000;1.000000;68271.015625;8435.000000
1.03200185;10.25300026;2.21540570;163;146;130;1.000000;1.000000;68271.015625;7786.000000
1.07000184;10.27700043;2.21540570;152;135;117;1.000000;1.000000;68271.015625;7786.000000
1.09700179;10.30200005;2.21040559;160;143;127;1.000000;1.000000;68271.015625;8435.000000
1.13100183;10.32499981;2.20940566;155;137;123;1.000000;1.000000;68271.015625;8435.000000
1.16500175;10.34799957;2.20840573;187;172;167;1.000000;1.000000;68271.015625;8435.000000
1.19900179;10.36999989;2.20740557;188;173;168;1.000000;1.000000;68271.015625;8435.000000
1.25600183;10.41600037;2.20140576;182;167;160;1.000000;1.000000;68271.015625;8435.000000
1.28900182;10.43900013;2.19940567;178;163;157;1.000000;1.000000;68271.015625;7786.000000
1.34300184;10.48299980;2.19340563;178;163;158;1.000000;1.000000;68271.015625;8435.000000
1.40500176;10.52499962;2.19040561;115;110;98;1.000000;1.000000;68271.015625;11031.000000
1.50200176;10.58699989;2.18840575;161;154;148;1.000000;1.000000;68271.015625;7138.000000
1.56800175;10.75599957;2.10440564;164;153;149;1.000000;1.000000;68271.015625;5840.000000
1.59500182;10.77700043;2.10140562;160;149;145;1.000000;1.000000;68271.015625;7138.000000
0.21300180;9.64000034;2.21240568;157;138;131;1.000000;1.000000;68271.062500;8435.000000
0.30400181;9.70199966;2.21240568;159;140;133;1.000000;1.000000;68271.062500;7786.000000
0.39300179;9.76300049;2.21140575;172;154;144;1.000000;1.000000;68271.062500;7138.000000
0.48100179;9.82100010;2.21240568;155;137;127;1.000000;1.000000;68271.062500;8435.000000
0.51400179;9.85000038;2.20740557;159;141;131;1.000000;1.000000;68271.062500;7786.000000
0.55500180;9.87699986;2.20740557;158;140;130;1.000000;1.000000;68271.062500;7786.000000
0.60700178;9.90600014;2.21140575;171;153;143;1.000000;1.000000;68271.062500;8435.000000
0.64300179;9.93299961;2.20940566;164;146;136;1.000000;1.000000;68271.062500;7786.000000
0.68100178;9.96000004;2.20840573;164;146;136;1.000000;1.000000;68271.062500;7786.000000
0.72000182;9.98700047;2.20640564;159;141;129;1.000000;1.000000;68271.062500;7138.000000
0.77100182;10.01200008;2.21240568;167;148;134;1.000000;1.000000;68271.062500;8435.000000
0.80300182;10.03900051;2.20840573;171;152;138;1.000000;1.000000;68271.062500;7786.000000
0.86200178;10.06299973;2.21640563;171;153;141;1.000000;1.000000;68271.062500;8435.000000
0.89500183;10.08899975;2.21440578;172;154;139;1.000000;1.000000;68271.062500;7786.000000
0.93200183;10.11299992;2.21340561;176;159;143;1.000000;1.000000;68271.062500;8435.000000
0.97100180;10.13899994;2.21340561;168;151;133;1.000000;1.000000;68271.062500;7786.000000
1.00700176;10.16300011;2.21240568;156;139;123;1.000000;1.000000;68271.062500;7786.000000
1.05100179;10.18599987;2.21640563;175;158;142;1.000000;1.000000;68271.062500;8435.000000
1.08700180;10.21000004;2.21540570;164;147;131;1.000000;1.000000;68271.062500;8435.000000
1.11500180;10.23400021;2.21140575;168;151;135;1.000000;1.000000;68271.062500;8435.000000
1.14600182;10.25800037;2.20840573;168;151;135;1.000000;1.000000;68271.062500;8435.000000
1.18200183;10.28100014;2.20840573;195;180;175;1.000000;1.000000;68271.062500;9084.000000
1.23900175;10.32699966;2.20140576;170;155;150;1.000000;1.000000;68271.062500;9084.000000
1.26400185;10.35099983;2.19740558;172;157;150;1.000000;1.000000;68271.062500;7786.000000
1.35700178;10.41699982;2.19140577;178;163;158;1.000000;1.000000;68271.062500;7786.000000
1.38900185;10.43700027;2.19140577;170;155;150;1.000000;1.000000;68271.062500;8435.000000
1.42000175;10.45899963;2.18940568;161;151;144;1.000000;1.000000;68271.062500;8435.000000
1.52700186;10.59700012;2.14240575;138;123;118;1.000000;1.000000;68271.062500;5840.000000
1.53900182;10.67300034;2.09740567;163;146;138;1.000000;1.000000;68271.062500;6489.000000
1.58000183;10.68999958;2.10140562;163;152;148;1.000000;1.000000;68271.062500;5191.000000
0.21900180;9.56499958;2.21040559;163;144;137;1.000000;1.000000;68271.117188;6489.000000
0.27100179;9.59599972;2.21340561;161;142;135;1.000000;1.000000;68271.117188;7138.000000
0.31400180;9.62600040;2.21240568;162;143;136;1.000000;1.000000;68271.117188;7786.000000
0.35900182;9.65600014;2.21240568;159;140;134;1.000000;1.000000;68271.117188;7138.000000
0.40600181;9.68700027;2.21240568;150;131;124;1.000000;1.000000;68271.117188;6489.000000
0.45100179;9.71599960;2.21340561;155;137;127;1.000000;1.000000;68271.117188;8435.000000
0.48500180;9.74499989;2.20940566;155;137;127;1.000000;1.000000;68271.117188;7786.000000
0.52500182;9.77400017;2.20840573;161;143;133;1.000000;1.000000;68271.117188;8435.000000
0.56900179;9.80300045;2.20840573;150;132;122;1.000000;1.000000;68271.117188;7786.000000
0.61000180;9.82999992;2.20840573;164;144;133;1.000000;1.000000;68271.117188;7786.000000
0.69900179;9.85700035;2.22740579;170;151;138;1.000000;1.000000;68271.117188;10382.000000
0.69800180;9.88399982;2.21040559;174;154;145;1.000000;1.000000;68271.117188;9733.000000
0.73500180;9.91100025;2.20940566;170;152;142;1.000000;1.000000;68271.117188;9084.000000
0.77200180;9.93799973;2.20740557;163;145;135;1.000000;1.000000;68271.117188;9084.000000
0.81500179;9.96300030;2.20940566;169;151;140;1.000000;1.000000;68271.117188;8435.000000
0.86200178;9.98999977;2.21140575;149;130;115;1.000000;1.000000;68271.117188;9733.000000
0.90400177;10.01399994;2.21340561;178;159;144;1.000000;1.000000;68271.117188;9733.000000
0.94500178;10.03900051;2.21440578;176;158;145;1.000000;1.000000;68271.117188;9733.000000
0.97800177;10.06400013;2.21240568;140;122;112;1.000000;1.000000;68271.117188;10382.000000
1.01200175;10.08899975;2.21040559;155;137;125;1.000000;1.000000;68271.117188;9733.000000
1.04700184;10.11299992;2.20940566;167;149;135;1.000000;1.000000;68271.117188;9733.000000
1.09200180;10.13599968;2.21240568;157;139;125;1.000000;1.000000;68271.117188;9733.000000
1.12000179;10.15999985;2.20940566;162;144;130;1.000000;1.000000;68271.117188;10382.000000
1.15600181;10.18400002;2.20840573;173;156;140;1.000000;1.000000;68271.117188;9084.000000
1.31100178;10.29800034;2.19740558;191;176;171;1.000000;1.000000;68271.117188;9733.000000
1.36700177;10.34300041;2.19040561;172;158;147;1.000000;1.000000;68271.117188;9733.000000
1.43400180;10.38500023;2.19040561;176;161;156;1.000000;1.000000;68271.117188;9733.000000
1.55700183;10.49400043;2.16840577;142;132;123;1.000000;1.000000;68271.117188;5191.000000
1.54300177;10.54800034;2.12740564;154;141;132;1.000000;1.000000;68271.117188;5191.000000
1.54500175;10.57400036;2.11140561;129;108;96;1.000000;1.000000;68271.117188;6489.000000
1.58800185;10.61699963;2.09940577;153;141;137;1.000000;1.000000;68271.117188;9084.000000
0.25500181;9.51099968;2.20740557;164;146;136;1.000000;1.000000;68271.164063;7138.000000
0.30600181;9.54199982;2.20940566;165;147;137;1.000000;1.000000;68271.164063;7138.000000
0.36200181;9.57299995;2.21340561;176;157;150;1.000000;1.000000;68271.164063;8435.000000
0.40100181;9.60299969;2.21140575;172;153;146;1.000000;1.000000;68271.164063;7786.000000
0.44400179;9.63199997;2.21140575;159;141;131;1.000000;1.000000;68271.164063;7786.000000
0.48100179;9.66300011;2.20740557;149;131;119;1.000000;1.000000;68271.164063;7138.000000
0.54100180;9.68999958;2.21440578;150;132;118;1.000000;1.000000;68271.164063;11031.000000
0.64700180;9.77400017;2.20640564;155;142;126;1.000000;1.000000;68271.164063;8435.000000
0.73000181;9.82900047;2.20640564;119;104;84;1.000000;1.000000;68271.164063;9084.000000
0.81600177;9.88199997;2.20840573;173;153;142;1.000000;1.000000;68271.164063;9733.000000
1.01400185;10.00800037;2.20940566;178;159;144;1.000000;1.000000;68271.164063;10382.000000
1.05200183;10.03199959;2.20940566;178;159;144;1.000000;1.000000;68271.164063;10382.000000
1.21900177;10.14999962;2.20240569;181;168;162;1.000000;1.000000;68271.164063;9084.000000
1.34900177;10.23999977;2.19640565;171;156;151;1.000000;1.000000;68271.164063;9733.000000
1.36900175;10.26300049;2.18940568;174;159;151;1.000000;1.000000;68271.164063;8435.000000
1.46900177;10.32600021;2.18840575;167;155;149;1.000000;1.000000;68271.164063;9733.000000
1.55900180;10.38899994;2.18340564;165;160;154;1.000000;1.000000;68271.164063;7138.000000
0.24200180;9.41600037;2.20240569;171;152;145;1.000000;1.000000;68271.210938;6489.000000
0.30500180;9.44799995;2.20840573;165;146;139;1.000000;1.000000;68271.210938;7138.000000
0.34600180;9.47900009;2.20640564;155;136;129;1.000000;1.000000;68271.210938;7138.000000
0.39300179;9.51000023;2.20640564;164;145;138;1.000000;1.000000;68271.210938;7786.000000
0.43800181;9.53900051;2.20740557;165;146;139;1.000000;1.000000;68271.210938;7138.000000
0.48700181;9.56799984;2.20940566;144;125;118;1.000000;1.000000;68271.210938;7138.000000
0.52900177;9.59799957;2.20840573;147;128;121;1.000000;1.000000;68271.210938;8435.000000
0.56600177;9.62699986;2.20640564;150;131;124;1.000000;1.000000;68271.210938;7786.000000
0.61200178;9.65600014;2.20740557;148;131;121;1.000000;1.000000;68271.210938;8435.000000
0.65200180;9.68200016;2.20740557;151;137;126;1.000000;1.000000;68271.210938;7138.000000
0.81500179;9.79100037;2.20640564;155;141;130;1.000000;1.000000;68271.210938;7786.000000
0.85900182;9.81700039;2.20840573;141;125;115;1.000000;1.000000;68271.210938;7786.000000
0.90600181;9.84099960;2.21240568;161;141;130;1.000000;1.000000;68271.210938;8435.000000
0.98400182;9.89200020;2.21140575;169;150;135;1.000000;1.000000;68271.210938;7786.000000
1.02300179;9.91699982;2.21140575;163;144;128;1.000000;1.000000;68271.210938;8435.000000
1.05500185;9.94200039;2.20940566;166;147;132;1.000000;1.000000;68271.218750;8435.000000
1.09000182;9.96500015;2.20840573;168;149;134;1.000000;1.000000;68271.218750;7786.000000
1.12900186;9.98900032;2.20940566;166;147;132;1.000000;1.000000;68271.218750;8435.000000
1.19700181;10.03699970;2.20640564;172;153;138;1.000000;1.000000;68271.218750;8435.000000
1.22900176;10.06000042;2.20440578;194;181;173;1.000000;1.000000;68271.218750;8435.000000
1.28800178;10.10599995;2.19940567;177;160;153;1.000000;1.000000;68271.218750;8435.000000
1.31700182;10.12899971;2.19640565;171;152;145;1.000000;1.000000;68271.218750;8435.000000
1.37800181;10.17300034;2.19240570;182;167;162;1.000000;1.000000;68271.218750;7786.000000
1.41300178;10.19499969;2.19240570;179;164;159;1.000000;1.000000;68271.218750;7786.000000
1.44600177;10.21599960;2.19140577;155;144;130;1.000000;1.000000;68271.218750;8435.000000
1.48000181;10.23700047;2.19140577;108;101;90;1.000000;1.000000;68271.218750;9733.000000
1.52300179;10.28199959;2.17940569;160;155;152;1.000000;1.000000;68271.218750;6489.000000
1.54700184;10.30399990;2.17440557;161;157;158;1.000000;1.000000;68271.218750;7138.000000
1.62200177;10.47099972;2.09540558;160;150;149;1.000000;1.000000;68271.218750;5840.000000
0.46100181;9.47200012;2.20540571;171;152;145;1.000000;1.000000;68271.265625;7138.000000
0.51100183;9.50100040;2.20840573;170;151;144;1.000000;1.000000;68271.265625;7138.000000
0.55500180;9.52999973;2.20840573;165;146;139;1.000000;1.000000;68271.265625;6489.000000
0.59300178;9.55799961;2.20640564;164;146;136;1.000000;1.000000;68271.265625;7786.000000
0.63100183;9.58699989;2.20440578;170;152;142;1.000000;1.000000;68271.265625;7786.000000
0.68200183;9.61400032;2.20840573;164;146;136;1.000000;1.000000;68271.265625;7138.000000
0.76200181;9.66899967;2.20740557;156;138;128;1.000000;1.000000;68271.265625;8435.000000
0.79900181;9.69600010;2.20540571;158;140;130;1.000000;1.000000;68271.265625;7138.000000
0.83900177;9.72299957;2.20540571;160;144;133;1.000000;1.000000;68271.265625;7786.000000
0.88500178;9.74800014;2.20840573;157;141;128;1.000000;1.000000;68271.265625;8435.000000
0.92400181;9.77400017;2.20740557;162;146;133;1.000000;1.000000;68271.265625;7138.000000
0.96300179;9.80000019;2.20740557;152;133;119;1.000000;1.000000;68271.265625;8435.000000
1.11300182;9.89599991;2.20740557;169;150;135;1.000000;1.000000;68271.265625;8435.000000
1.15100181;9.92100048;2.20740557;168;149;134;1.000000;1.000000;68271.265625;7786.000000
1.25900185;9.98999977;2.20740557;140;132;125;1.000000;1.000000;68271.265625;11031.000000
1.29300177;10.01300049;2.20640564;113;115;98;1.000000;1.000000;68271.265625;12329.000000
1.32200181;10.03600025;2.20340562;179;177;160;1.000000;1.000000;68271.265625;11680.000000
1.34200180;10.05900002;2.19640565;146;137;125;1.000000;1.000000;68271.265625;12329.000000
1.39600182;10.10500050;2.18840575;182;170;158;1.000000;1.000000;68271.265625;9733.000000
1.52000177;10.19099998;2.18240571;156;148;145;1.000000;1.000000;68271.265625;7786.000000
1.60800183;10.25399971;2.17640567;145;140;137;1.000000;1.000000;68271.265625;4542.000000
1.62100184;10.27600002;2.16740561;128;119;115;1.000000;1.000000;68271.265625;5191.000000
1.59900177;10.33300018;2.12140560;150;136;127;1.000000;1.000000;68271.265625;5191.000000
0.38700181;9.33699989;2.20340562;164;145;138;1.000000;1.000000;68271.312500;6489.000000
0.61700177;9.48400021;2.20740557;167;148;141;1.000000;1.000000;68271.312500;7138.000000
0.66400182;9.51300049;2.20840573;157;138;131;1.000000;1.000000;68271.312500;7786.000000
0.78400183;9.59500027;2.20740557;165;146;139;1.000000;1.000000;68271.312500;7786.000000
0.82300180;9.62199974;2.20640564;159;141;131;1.000000;1.000000;68271.312500;7786.000000
0.91300178;9.67399979;2.21040559;163;145;135;1.000000;1.000000;68271.312500;8435.000000
0.94600183;9.69900036;2.20840573;154;136;126;1.000000;1.000000;68271.312500;7786.000000
1.11800182;9.79699993;2.21640563;165;148;133;1.000000;1.000000;68271.312500;8435.000000
1.13900185;9.82200050;2.20940566;165;146;132;1.000000;1.000000;68271.312500;8435.000000
1.17400181;9.84700012;2.20840573;157;138;124;1.000000;1.000000;68271.312500;7786.000000
1.20600176;9.86999989;2.20640564;166;147;133;1.000000;1.000000;68271.312500;8435.000000
1.26300180;9.91800022;2.19940567;186;175;169;1.000000;1.000000;68271.312500;9084.000000
1.29500175;9.94099998;2.19740558;156;157;147;1.000000;1.000000;68271.312500;9084.000000
1.42700183;10.02999973;2.19340563;130;125;109;1.000000;1.000000;68271.312500;12329.000000
1.46300185;10.05099964;2.19440556;119;120;103;1.000000;1.000000;68271.312500;12329.000000
1.48500180;10.07400036;2.18840575;149;137;129;1.000000;1.000000;68271.312500;12329.000000
1.53800178;10.11699963;2.18140578;169;156;156;1.000000;1.000000;68271.312500;9084.000000
1.62600183;10.17899990;2.17640567;168;160;157;1.000000;1.000000;68271.312500;5840.000000
1.62400174;10.25800037;2.12440562;148;135;129;1.000000;1.000000;68271.312500;5191.000000
0.30200180;9.19799995;2.19740558;167;148;141;1.000000;1.000000;68271.367188;7138.000000
0.49800181;9.32100010;2.20340562;162;143;136;1.000000;1.000000;68271.367188;8435.000000
0.75900179;9.49100018;2.20540571;138;120;110;1.000000;1.000000;68271.367188;7786.000000
0.80500180;9.51799965;2.20740557;164;145;138;1.000000;1.000000;68271.367188;8435.000000
0.84300178;9.54500008;2.20640564;164;146;136;1.000000;1.000000;68271.367188;7786.000000
0.88400179;9.57100010;2.20640564;170;152;142;1.000000;1.000000;68271.367188;7786.000000
0.92800182;9.59700012;2.20840573;145;127;117;1.000000;1.000000;68271.367188;8435.000000
0.96500182;9.62300014;2.20840573;163;145;135;1.000000;1.000000;68271.367188;8435.000000
1.00200176;9.64900017;2.20640564;173;155;145;1.000000;1.000000;68271.367188;7786.000000
1.04200184;9.67300034;2.20840573;160;141;135;1.000000;1.000000;68271.367188;8435.000000
1.12200177;9.72200012;2.20940566;160;147;131;1.000000;1.000000;68271.367188;8435.000000
1.27200174;9.73600006;2.26040578;152;146;130;1.000000;1.000000;68271.367188;11680.000000
1.23700178;9.79199982;2.21240568;144;128;113;1.000000;1.000000;68271.367188;12329.000000
1.25900185;9.81700039;2.20540571;165;149;132;1.000000;1.000000;68271.367188;11680.000000
1.30100179;9.86499977;2.19140577;194;177;172;1.000000;1.000000;68271.367188;10382.000000
1.48200178;10.00000000;2.17840576;182;182;170;1.000000;1.000000;68271.367188;10382.000000
1.58100176;10.06299973;2.17740560;157;146;150;1.000000;1.000000;68271.367188;5191.000000
1.63600183;10.10400009;2.17140555;164;156;154;1.000000;1.000000;68271.367188;5840.000000
0.39100179;9.18099976;2.19340563;152;133;126;1.000000;1.000000;68271.414063;6489.000000
0.44200179;9.21100044;2.19540572;171;152;145;1.000000;1.000000;68271.414063;7138.000000
0.58500183;9.30000019;2.19940567;166;147;140;1.000000;1.000000;68271.414063;7786.000000
0.79900181;9.43999958;2.20140576;163;145;135;1.000000;1.000000;68271.414063;7786.000000
0.97500181;9.54399967;2.20840573;115;97;83;1.000000;1.000000;68271.414063;12329.000000
1.19700181;9.69200039;2.20540571;114;109;90;1.000000;1.000000;68271.414063;10382.000000
1.46600175;9.89999962;2.18140578;184;171;163;1.000000;1.000000;68271.414063;10382.000000
1.52600181;9.94299984;2.17740560;184;176;173;1.000000;1.000000;68271.414063;10382.000000
0.32900181;9.06799984;2.18840575;160;141;134;1.000000;1.000000;68271.460938;8435.000000
0.38300180;9.09899998;2.19140577;163;144;137;1.000000;1.000000;68271.460938;8435.000000
0.42600179;9.12899971;2.19140577;165;146;139;1.000000;1.000000;68271.460938;8435.000000
0.47000179;9.15999985;2.19040561;162;143;136;1.000000;1.000000;68271.460938;8435.000000
0.56200182;9.21899986;2.19140577;155;136;129;1.000000;1.000000;68271.460938;8435.000000
0.60900182;9.24800014;2.19340563;153;134;127;1.000000;1.000000;68271.460938;7786.000000
0.65100181;9.27600002;2.19340563;166;147;140;1.000000;1.000000;68271.460938;7786.000000
0.79400182;9.35999966;2.19940567;151;132;125;1.000000;1.000000;68271.460938;9084.000000
0.87600178;9.41300011;2.20040560;146;128;118;1.000000;1.000000;68271.460938;8435.000000
1.07400179;9.54100037;2.20040560;177;163;152;1.000000;1.000000;68271.460938;9084.000000
1.11100185;9.56499958;2.20040560;163;149;138;1.000000;1.000000;68271.460938;10382.000000
1.19100177;9.61299992;2.20240569;161;147;136;1.000000;1.000000;68271.468750;9733.000000
1.34800184;9.73099995;2.19140577;189;179;170;1.000000;1.000000;68271.468750;10382.000000
1.37900186;9.75399971;2.18940568;165;154;152;1.000000;1.000000;68271.468750;9733.000000
1.40800178;9.77600002;2.18640566;185;173;172;1.000000;1.000000;68271.468750;10382.000000
1.43900180;9.79899979;2.18340564;175;164;160;1.000000;1.000000;68271.468750;9733.000000
1.50000179;9.84300041;2.18040562;189;176;170;1.000000;1.000000;68271.468750;9733.000000
1.55700183;9.88599968;2.17540574;192;182;177;1.000000;1.000000;68271.468750;10382.000000
1.59700179;9.90600014;2.17840576;180;169;170;1.000000;1.000000;68271.468750;9084.000000
0.50300181;9.10400009;2.19140577;165;146;139;1.000000;1.000000;68271.515625;8435.000000
0.59000182;9.16300011;2.19040561;168;149;142;1.000000;1.000000;68271.515625;8435.000000
0.63400179;9.19299984;2.19040561;163;144;137;1.000000;1.000000;68271.515625;7786.000000
0.81300181;9.30200005;2.19540572;150;131;124;1.000000;1.000000;68271.515625;7138.000000
0.85700178;9.32999992;2.19640565;146;127;119;1.000000;1.000000;68271.515625;7786.000000
1.00800180;9.40600014;2.20940566;139;121;111;1.000000;1.000000;68271.515625;9733.000000
1.07200181;9.45699978;2.20240569;176;162;151;1.000000;1.000000;68271.515625;8435.000000
1.23700178;9.55300045;2.20940566;147;134;122;1.000000;1.000000;68271.515625;9733.000000
1.31100178;9.57200050;2.22640562;106;107;87;1.000000;1.000000;68271.515625;11680.000000
1.55700183;9.80599976;2.17540574;179;170;165;1.000000;1.000000;68271.515625;9733.000000
1.61900175;9.84700012;2.17340565;158;150;148;1.000000;1.000000;68271.515625;8435.000000
1.70800185;10.03900051;2.08340573;152;139;132;1.000000;1.000000;68271.515625;5840.000000
1.74800181;10.05700016;2.08740568;159;142;133;1.000000;1.000000;68271.515625;5191.000000
0.39600179;8.95300007;2.18840575;139;120;113;1.000000;1.000000;68271.562500;7138.000000
0.44500181;8.98400021;2.18940568;164;145;138;1.000000;1.000000;68271.562500;6489.000000
0.48800179;9.01399994;2.18840575;160;141;134;1.000000;1.000000;68271.562500;6489.000000
0.66800177;9.13099957;2.19040561;162;143;136;1.000000;1.000000;68271.562500;6489.000000
0.72300178;9.15900040;2.19540572;153;134;127;1.000000;1.000000;68271.562500;7786.000000
0.80300182;9.21399975;2.19340563;157;138;131;1.000000;1.000000;68271.562500;7138.000000
0.85100180;9.23999977;2.19640565;158;139;132;1.000000;1.000000;68271.562500;7138.000000
0.88600183;9.26799965;2.19340563;154;135;128;1.000000;1.000000;68271.562500;7786.000000
0.97500181;9.31900024;2.19740558;152;133;126;1.000000;1.000000;68271.562500;7786.000000
1.05400181;9.36999989;2.19740558;119;102;87;1.000000;1.000000;68271.562500;9733.000000
1.09300184;9.39400005;2.19740558;186;169;160;1.000000;1.000000;68271.562500;10382.000000
1.25400186;9.49100018;2.20140576;159;145;137;1.000000;1.000000;68271.562500;10382.000000
1.65500176;9.78100014;2.17440557;156;148;146;1.000000;1.000000;68271.562500;7786.000000
1.68500185;9.80099964;2.17240572;159;151;149;1.000000;1.000000;68271.562500;7786.000000
1.73200178;9.87100029;2.14640570;130;121;116;1.000000;1.000000;68271.562500;5840.000000
0.42500180;8.89000034;2.18840575;158;139;132;1.000000;1.000000;68271.617188;7138.000000
0.51400179;8.95199966;2.18740559;166;147;140;1.000000;1.000000;68271.617188;7138.000000
0.69800180;9.06799984;2.19040561;165;146;139;1.000000;1.000000;68271.617188;8435.000000
0.74000180;9.09599972;2.18940568;154;135;128;1.000000;1.000000;68271.617188;7138.000000
0.78300178;9.12300014;2.19140577;159;140;133;1.000000;1.000000;68271.617188;7786.000000
0.83300179;9.14999962;2.19340563;153;134;127;1.000000;1.000000;68271.617188;9084.000000
0.87500179;9.17700005;2.19440556;147;128;121;1.000000;1.000000;68271.617188;7786.000000
0.91800177;9.20400047;2.19440556;164;145;138;1.000000;1.000000;68271.617188;7786.000000
0.95500177;9.23000050;2.19340563;163;144;137;1.000000;1.000000;68271.617188;7786.000000
0.99200177;9.25500011;2.19240570;147;129;121;1.000000;1.000000;68271.617188;7786.000000
1.03800178;9.28100014;2.19440556;148;134;125;1.000000;1.000000;68271.617188;7138.000000
1.15200186;9.35500050;2.19340563;142;130;114;1.000000;1.000000;68271.617188;7786.000000
1.52300179;9.60799980;2.17940569;173;165;154;1.000000;1.000000;68271.617188;9733.000000
1.59300184;9.65100002;2.17940569;115;110;94;1.000000;1.000000;68271.617188;12329.000000
1.62000179;9.67199993;2.17640567;127;118;100;1.000000;1.000000;68271.617188;12329.000000
1.64800179;9.69400024;2.17340565;162;152;143;1.000000;1.000000;68271.617188;10382.000000
1.68400180;9.71300030;2.17540574;155;147;145;1.000000;1.000000;68271.617188;9733.000000
1.74200177;9.83300018;2.12040567;149;136;130;1.000000;1.000000;68271.617188;5840.000000
1.76200175;9.90799999;2.07840562;148;135;127;1.000000;1.000000;68271.617188;5840.000000
0.45600179;8.82699966;2.18740559;162;148;139;1.000000;1.000000;68271.664063;7786.000000
0.53900182;8.88599968;2.18540573;159;145;136;1.000000;1.000000;68271.664063;7138.000000
0.63300180;8.94499969;2.18640566;158;139;132;1.000000;1.000000;68271.664063;7138.000000
0.85700178;9.08399963;2.19040561;149;134;127;1.000000;1.000000;68271.664063;7786.000000
0.89000177;9.11100006;2.18740559;147;133;122;1.000000;1.000000;68271.664063;7138.000000
0.94000179;9.13800049;2.19040561;140;127;113;1.000000;1.000000;68271.664063;7786.000000
0.97700179;9.16300011;2.18940568;138;125;109;1.000000;1.000000;68271.664063;7786.000000
1.04200184;9.18700027;2.19940567;126;112;103;1.000000;1.000000;68271.664063;11680.000000
1.21300185;9.31299973;2.18940568;124;111;95;1.000000;1.000000;68271.664063;8435.000000
1.34000182;9.38099957;2.19640565;132;113;98;1.000000;1.000000;68271.664063;11031.000000
1.41600180;9.45199966;2.18140578;173;164;155;1.000000;1.000000;68271.664063;9084.000000
1.65600181;9.60200024;2.17840576;112;109;90;1.000000;1.000000;68271.664063;12329.000000
1.79400182;9.83800030;2.07840562;151;133;125;1.000000;1.000000;68271.664063;7138.000000
0.48900181;8.75800037;2.18940568;153;139;130;1.000000;1.000000;68271.710938;7138.000000
0.58200181;8.81900024;2.18940568;165;151;143;1.000000;1.000000;68271.710938;7138.000000
0.62500179;8.84700012;2.18940568;162;148;139;1.000000;1.000000;68271.710938;7138.000000
0.70900178;8.90499973;2.18740559;140;126;117;1.000000;1.000000;68271.710938;7138.000000
0.83900177;8.98799992;2.18840575;139;125;116;1.000000;1.000000;68271.710938;7786.000000
0.92100179;9.04199982;2.18740559;165;151;142;1.000000;1.000000;68271.710938;7786.000000
1.00800180;9.09399986;2.18940568;146;132;123;1.000000;1.000000;68271.710938;8435.000000
1.04300177;9.11900043;2.18740559;155;141;132;1.000000;1.000000;68271.710938;7786.000000
1.08800185;9.14500046;2.18940568;147;133;124;1.000000;1.000000;68271.718750;7786.000000
1.24100184;9.24199963;2.18940568;144;129;124;1.000000;1.000000;68271.718750;7786.000000
1.30800176;9.28900051;2.18540573;148;133;128;1.000000;1.000000;68271.718750;7786.000000
1.35500181;9.31200027;2.18940568;156;141;136;1.000000;1.000000;68271.718750;7786.000000
1.38900185;9.33500004;2.18840575;161;142;128;1.000000;1.000000;68271.718750;9733.000000
1.40700185;9.35900021;2.17940569;149;134;118;1.000000;1.000000;68271.718750;8435.000000
1.50000179;9.42700005;2.17240572;139;127;112;1.000000;1.000000;68271.718750;8435.000000
1.60700178;9.49100018;2.17340565;128;122;106;1.000000;1.000000;68271.718750;8435.000000
1.68000185;9.53100014;2.17640567;118;117;97;1.000000;1.000000;68271.718750;11031.000000
1.78900182;9.72000027;2.09540558;140;118;102;1.000000;1.000000;68271.718750;12977.000000
0.99500179;8.99400043;2.18440557;136;121;118;1.000000;1.000000;68271.765625;7138.000000
1.05400181;9.01799965;2.19240570;153;137;135;1.000000;1.000000;68271.765625;8435.000000
1.09200180;9.04399967;2.19140577;163;148;140;1.000000;1.000000;68271.765625;9084.000000
1.23000181;9.14400005;2.18440557;147;132;127;1.000000;1.000000;68271.765625;7786.000000
1.52100182;9.32600021;2.18240571;174;157;150;1.000000;1.000000;68271.765625;11031.000000
1.71600175;9.42800045;2.19240570;98;95;72;1.000000;1.000000;68271.765625;12329.000000
1.72800183;9.45199966;2.18040562;156;155;135;1.000000;1.000000;68271.765625;12329.000000
1.72000182;9.48000050;2.16040564;113;104;83;1.000000;1.000000;68271.765625;12329.000000
0.47100180;8.55000019;2.18840575;171;157;154;1.000000;1.000000;68271.812500;6489.000000
0.85600179;8.81200027;2.18140578;168;157;153;1.000000;1.000000;68271.812500;7138.000000
0.94600183;8.86600018;2.18340564;167;156;152;1.000000;1.000000;68271.812500;7138.000000
1.16200185;8.99300003;2.18940568;175;164;160;1.000000;1.000000;68271.812500;8435.000000
1.19700181;9.01700020;2.18840575;189;178;174;1.000000;1.000000;68271.812500;7786.000000
1.27600181;9.06599998;2.18840575;173;162;158;1.000000;1.000000;68271.812500;8435.000000
1.38700175;9.13599968;2.18840575;175;170;150;1.000000;1.000000;68271.812500;8435.000000
1.49800181;9.23000050;2.17140555;176;166;158;1.000000;1.000000;68271.812500;8435.000000
1.60100186;9.26799965;2.18640566;167;151;118;1.000000;1.000000;68271.812500;9084.000000
1.71700180;9.30200005;2.20940566;149;138;121;1.000000;1.000000;68271.812500;11680.000000
0.85700178;8.70800018;2.18440557;173;160;154;1.000000;1.000000;68271.867188;7138.000000
0.97700179;8.78800011;2.18140578;174;163;159;1.000000;1.000000;68271.867188;7786.000000
1.06400180;8.84099960;2.18340564;158;147;143;1.000000;1.000000;68271.867188;8435.000000
1.09900177;8.86499977;2.18140578;171;157;151;1.000000;1.000000;68271.867188;7786.000000
1.14800179;8.89099979;2.18540573;166;153;148;1.000000;1.000000;68271.867188;8435.000000
1.26600182;8.96399975;2.18540573;166;155;151;1.000000;1.000000;68271.867188;8435.000000
1.31100178;8.98700047;2.18840575;164;153;149;1.000000;1.000000;68271.867188;8435.000000
1.50400186;9.12800026;2.17440557;169;162;154;1.000000;1.000000;68271.867188;8435.000000
1.58100176;9.16899967;2.17840576;180;169;165;1.000000;1.000000;68271.867188;8435.000000
0.76400179;8.54600048;2.18640566;183;170;164;1.000000;1.000000;68271.914063;7786.000000
0.88300180;8.62899971;2.18240571;166;153;147;1.000000;1.000000;68271.914063;7138.000000
1.43800175;8.97900009;2.18140578;177;168;162;1.000000;1.000000;68271.914063;9084.000000
1.47600186;9.00100040;2.18140578;158;150;142;1.000000;1.000000;68271.914063;9084.000000
1.56200182;9.07100010;2.17040563;174;166;163;1.000000;1.000000;68271.914063;8435.000000
1.59800184;9.09200001;2.17140555;172;165;161;1.000000;1.000000;68271.914063;8435.000000
1.63500178;9.11400032;2.17140555;174;164;153;1.000000;1.000000;68271.914063;8435.000000
0.62400180;8.35200024;2.18840575;174;163;161;1.000000;1.000000;68271.960938;5840.000000
0.70700181;8.41199970;2.18540573;165;151;148;1.000000;1.000000;68271.960938;7138.000000
0.74200177;8.43999958;2.18240571;167;154;150;1.000000;1.000000;68271.960938;6489.000000
0.78400183;8.46800041;2.18140578;167;154;148;1.000000;1.000000;68271.960938;7138.000000
0.83500183;8.49699974;2.18440557;173;160;154;1.000000;1.000000;68271.960938;7786.000000
0.91200179;8.55200005;2.18040562;168;155;149;1.000000;1.000000;68271.960938;7138.000000
0.95300180;8.57900047;2.17940569;173;160;154;1.000000;1.000000;68271.960938;7138.000000
1.04000175;8.63199997;2.18140578;165;152;146;1.000000;1.000000;68271.960938;7786.000000
1.08100176;8.65799999;2.18140578;159;146;140;1.000000;1.000000;68271.968750;7138.000000
1.11800182;8.68400002;2.17940569;158;152;143;1.000000;1.000000;68271.968750;6489.000000
1.36300182;8.82999992;2.18440557;163;152;148;1.000000;1.000000;68271.968750;8435.000000
0.59900182;8.24400043;2.18640566;164;150;147;1.000000;1.000000;68272.015625;5840.000000
0.68200183;8.30399990;2.18340564;172;161;159;1.000000;1.000000;68272.015625;7138.000000
0.77100182;8.36100006;2.18340564;171;158;152;1.000000;1.000000;68272.015625;7138.000000
0.85800183;8.41800022;2.18240571;166;153;147;1.000000;1.000000;68272.015625;6489.000000
0.89600182;8.44600010;2.18040562;162;149;143;1.000000;1.000000;68272.015625;7786.000000
0.93900180;8.47399998;2.18040562;170;157;151;1.000000;1.000000;68272.015625;7138.000000
0.98500180;8.50000000;2.18240571;171;158;152;1.000000;1.000000;68272.015625;7138.000000
1.37000179;8.72399998;2.19240570;149;131;120;1.000000;1.000000;68272.015625;9733.000000
1.39900184;8.74800014;2.18840575;158;140;127;1.000000;1.000000;68272.015625;9733.000000
1.41900182;8.77400017;2.18040562;154;145;131;1.000000;1.000000;68272.015625;8435.000000
1.55400181;8.86499977;2.17440557;156;140;128;1.000000;1.000000;68272.015625;8435.000000
1.57700181;8.89000034;2.16740561;154;142;132;1.000000;1.000000;68272.015625;7138.000000
0.61700177;8.16499996;2.18340564;176;162;159;1.000000;1.000000;68272.062500;7786.000000
0.66500181;8.19499969;2.18340564;187;173;170;1.000000;1.000000;68272.062500;6489.000000
0.79600179;8.28299999;2.18140578;179;166;160;1.000000;1.000000;68272.062500;7138.000000
1.05600178;8.44700050;2.18340564;162;149;143;1.000000;1.000000;68272.062500;7786.000000
1.16500175;8.52400017;2.17740560;163;150;144;1.000000;1.000000;68272.062500;7138.000000
1.21600175;8.54899979;2.18140578;170;159;155;1.000000;1.000000;68272.062500;8435.000000
1.32900178;8.62300014;2.17940569;150;140;131;1.000000;1.000000;68272.062500;7138.000000
1.39300179;8.67199993;2.17340565;153;137;128;1.000000;1.000000;68272.062500;7138.000000
1.43500185;8.69400024;2.17540574;160;150;141;1.000000;1.000000;68272.062500;7786.000000
1.11400175;8.39400005;2.17940569;168;155;149;1.000000;1.000000;68272.117188;7786.000000
1.16400182;8.41800022;2.18440557;168;155;149;1.000000;1.000000;68272.117188;8435.000000
1.28600180;8.49400043;2.18440557;151;140;136;1.000000;1.000000;68272.117188;7786.000000
1.38200176;8.56700039;2.17540574;144;138;129;1.000000;1.000000;68272.117188;7138.000000
0.65000182;8.01399994;2.17540574;164;150;147;1.000000;1.000000;68272.164063;7138.000000
0.97800177;8.21300030;2.18140578;169;156;150;1.000000;1.000000;68272.164063;7786.000000
1.06000185;8.26700020;2.17940569;171;158;152;1.000000;1.000000;68272.164063;7138.000000
1.22800183;8.36900043;2.18040562;162;149;143;1.000000;1.000000;68272.164063;7786.000000
1.27300179;8.39400005;2.18240571;158;145;139;1.000000;1.000000;68272.164063;8435.000000
1.37800181;8.46700001;2.17740560;147;135;131;1.000000;1.000000;68272.164063;7138.000000
0.65700179;7.92600012;2.17540574;159;145;142;1.000000;1.000000;68272.210938;7138.000000
0.70100182;7.95700026;2.17340565;170;156;153;1.000000;1.000000;68272.210938;7138.000000
0.74100178;7.98600006;2.17140555;172;157;152;1.000000;1.000000;68272.210938;7138.000000
1.23200178;8.28299999;2.17740560;164;151;145;1.000000;1.000000;68272.218750;7786.000000
1.32400179;8.33100033;2.18240571;152;139;133;1.000000;1.000000;68272.218750;8435.000000
0.68700182;7.85500002;2.17340565;169;155;152;1.000000;1.000000;68272.265625;7138.000000
0.72900182;7.88500023;2.17140555;174;159;154;1.000000;1.000000;68272.265625;7138.000000
0.87000179;7.97100019;2.17340565;180;165;160;1.000000;1.000000;68272.265625;7786.000000
0.95700181;8.02700043;2.17240572;180;167;161;1.000000;1.000000;68272.265625;7138.000000
1.26800179;8.20800018;2.17840576;172;159;153;1.000000;1.000000;68272.265625;8435.000000
0.72100180;7.79699993;2.16740561;170;155;150;1.000000;1.000000;68272.312500;7786.000000
0.81100178;7.85599995;2.16640568;172;157;152;1.000000;1.000000;68272.312500;7786.000000
1.09600174;8.01799965;2.17440557;169;154;149;1.000000;1.000000;68272.312500;7786.000000
1.13600183;8.04500008;2.17240572;165;150;145;1.000000;1.000000;68272.312500;7138.000000
1.18200183;8.06999969;2.17440557;169;156;150;1.000000;1.000000;68272.312500;7138.000000
1.22400177;8.09599972;2.17340565;164;151;145;1.000000;1.000000;68272.312500;7138.000000
0.80300182;7.74800014;2.16740561;180;165;160;1.000000;1.000000;68272.367188;7786.000000
0.85700178;7.77600002;2.17040563;164;149;144;1.000000;1.000000;68272.367188;7138.000000
0.98400182;7.86000013;2.16740561;162;147;142;1.000000;1.000000;68272.367188;7138.000000
1.03100181;7.88700008;2.16840577;155;140;135;1.000000;1.000000;68272.367188;7786.000000
1.12400174;7.94000006;2.17040563;172;153;149;1.000000;1.000000;68272.367188;7138.000000
1.16300178;7.96600008;2.16940570;164;149;144;1.000000;1.000000;68272.367188;7138.000000
1.21000183;7.99100018;2.17140555;157;142;137;1.000000;1.000000;68272.367188;7138.000000
1.29700184;8.04100037;2.17240572;157;144;138;1.000000;1.000000;68272.367188;7138.000000
0.79000181;7.65299988;2.16240573;175;160;157;1.000000;1.000000;68272.414063;6489.000000
1.03400183;7.79199982;2.16940570;170;155;150;1.000000;1.000000;68272.414063;7786.000000
1.07400179;7.82000017;2.16640568;164;149;144;1.000000;1.000000;68272.414063;7138.000000
1.29500175;7.94700003;2.17040563;156;141;136;1.000000;1.000000;68272.414063;7138.000000
0.81500179;7.56799984;2.16440558;176;161;158;1.000000;1.000000;68272.460938;6489.000000
0.91100180;7.62400007;2.16640568;174;159;152;1.000000;1.000000;68272.460938;7786.000000
0.95000178;7.65299988;2.16340566;174;160;151;1.000000;1.000000;68272.460938;7786.000000
1.00400186;7.67999983;2.16640568;173;158;153;1.000000;1.000000;68272.460938;7138.000000
1.09000182;7.73400021;2.16540575;172;157;152;1.000000;1.000000;68272.460938;7786.000000
1.17700183;7.78600025;2.16540575;166;151;146;1.000000;1.000000;68272.460938;6489.000000
1.26800179;7.83699989;2.16740561;162;149;143;1.000000;1.000000;68272.460938;7786.000000
0.82800180;7.49200010;2.16040564;170;155;152;1.000000;1.000000;68272.515625;7138.000000
0.92700177;7.54900026;2.16240573;173;158;151;1.000000;1.000000;68272.515625;7138.000000
1.16000175;7.68400002;2.16540575;168;153;148;1.000000;1.000000;68272.515625;7138.000000
0.91300178;7.44600010;2.16240573;167;152;149;1.000000;1.000000;68272.562500;7138.000000
0.96000183;7.47499990;2.16140556;157;142;139;1.000000;1.000000;68272.562500;6489.000000
1.04800177;7.52899981;2.16040564;167;152;146;1.000000;1.000000;68272.562500;7138.000000
1.18400180;7.60799980;2.16140556;166;151;146;1.000000;1.000000;68272.562500;7138.000000
0.88000178;7.33400011;2.16140556;174;159;156;1.000000;1.000000;68272.617188;7786.000000
0.97100180;7.38999987;2.16140556;172;157;154;1.000000;1.000000;68272.617188;7786.000000
1.02800179;7.41900015;2.16440558;157;142;139;1.000000;1.000000;68272.617188;5840.000000
1.10600185;7.47200012;2.16040564;162;147;142;1.000000;1.000000;68272.617188;6489.000000
1.14700174;7.49900007;2.15840578;158;143;138;1.000000;1.000000;68272.617188;7138.000000
0.94500178;7.16599989;2.16140556;159;144;139;1.000000;1.000000;68272.710938;9084.000000
1.08100176;7.24900007;2.16040564;164;149;144;1.000000;1.000000;68272.710938;6489.000000
0.89200181;7.02199984;2.16140556;175;160;155;1.000000;1.000000;68272.765625;7138.000000
1.04000175;7.10599995;2.16440558;197;182;177;1.000000;1.000000;68272.765625;8435.000000
0.87700182;10.39900017;8.37140560;138;151;158;1.000000;1.000000;68283.242188;7138.000000
0.80700183;10.36699963;8.35240555;132;145;143;1.000000;1.000000;68283.343750;649.000000
